1.57812 0.296875 -0.663294 0 0 1
1.59375 0.296875 -0.710412 0 0 1
1.64844 0.296875 -0.703417 0 0 1
1.65625 0.296875 -0.652195 0 0 1
1.66406 0.296875 -0.694778 0 0 1
1.67969 0.296875 -0.668531 0 0 1
1.6875 0.296875 -0.683322 0 0 1
1.69531 0.296875 -0.66778 0 0 1
1.71094 0.296875 -0.688403 0 0 1
1.72656 0.296875 -0.680651 0 0 1
1.74219 0.296875 -0.661663 0 0 1
1.75 0.296875 -0.70414 0 0 1
1.76562 0.296875 -0.709664 0 0 1
1.78906 0.296875 -0.72416 0 0 1
1.82812 0.296875 -0.742475 0 0 1
1.53906 0.304688 -0.478034 0 0 1
1.55469 0.304688 -0.500444 0 0 1
1.625 0.304688 -0.656312 0 0 1
1.67188 0.304688 -0.663813 0 0 1
1.75 0.304688 -0.692835 0 0 1
1.75781 0.304688 -0.687419 0 0 1
1.77344 0.304688 -0.700902 0 0 1
1.80469 0.304688 -0.729569 0 0 1
1.8125 0.304688 -0.740447 0 0 1
1.83594 0.304688 -0.740413 0 0 1
1.53906 0.3125 -0.49661 0 0 1
1.54688 0.3125 -0.685343 0 0 1
1.5625 0.3125 -0.663821 0 0 1
1.57031 0.3125 -0.712938 0 0 1
1.57812 0.3125 -0.720861 0 0 1
1.60156 0.3125 -0.718563 0 0 1
1.63281 0.3125 -0.705795 0 0 1
1.64844 0.3125 -0.693795 0 0 1
1.66406 0.3125 -0.680404 0 0 1
1.8125 0.3125 -0.720772 0 0 1
1.82031 0.3125 -0.731789 0 0 1
1.84375 0.3125 -0.728944 0 0 1
1.52344 0.320312 -0.493797 0 0 1
1.53906 0.320312 -0.692752 0 0 1
1.54688 0.320312 -0.703516 0 0 1
1.55469 0.320312 -0.717065 0 0 1
1.58594 0.320312 -0.659532 0 0 1
1.61719 0.320312 -0.715592 0 0 1
1.625 0.320312 -0.664207 0 0 1
1.63281 0.320312 -0.665975 0 0 1
1.64844 0.320312 -0.67415 0 0 1
1.78906 0.320312 -0.692113 0 0 1
1.8125 0.320312 -0.709139 0 0 1
1.83594 0.320312 -0.724244 0 0 1
1.84375 0.320312 -0.716106 0 0 1
1.51562 0.328125 -0.495582 0 0 1
1.52344 0.328125 -0.506492 0 0 1
1.53906 0.328125 -0.718101 0 0 1
1.5625 0.328125 -0.661096 0 0 1
1.57812 0.328125 -0.729216 0 0 1
1.60938 0.328125 -0.664452 0 0 1
1.64062 0.328125 -0.68943 0 0 1
1.80469 0.328125 -0.690961 0 0 1
1.82812 0.328125 -0.711385 0 0 1
1.83594 0.328125 -0.711514 0 0 1
1.84375 0.328125 -0.689452 0 0 1
1.5 0.335938 -0.468634 0 0 1
1.51562 0.335938 -0.698943 0 0 1
1.52344 0.335938 -0.710639 0 0 1
1.54688 0.335938 -0.50962 0 0 1
1.55469 0.335938 -0.731702 0 0 1
1.59375 0.335938 -0.723959 0 0 1
1.60156 0.335938 -0.667723 0 0 1
1.60938 0.335938 -0.720072 0 0 1
1.61719 0.335938 -0.671592 0 0 1
1.82812 0.335938 -0.696246 0 0 1
1.49219 0.34375 -0.477321 0 0 1
1.50781 0.34375 -0.50455 0 0 1
1.53125 0.34375 -0.672538 0 0 1
1.54688 0.34375 -0.665987 0 0 1
1.5625 0.34375 -0.662292 0 0 1
1.57812 0.34375 -0.662585 0 0 1
1.58594 0.34375 -0.728541 0 0 1
1.61719 0.34375 -0.711864 0 0 1
1.625 0.34375 -0.690256 0 0 1
1.84375 0.34375 -0.691269 0 0 1
1.48438 0.351562 -0.500871 0 0 1
1.50781 0.351562 -0.68911 0 0 1
1.51562 0.351562 -0.723337 0 0 1
1.53125 0.351562 -0.73458 0 0 1
1.53906 0.351562 -0.738803 0 0 1
1.54688 0.351562 -0.509906 0 0 1
1.5625 0.351562 -0.738561 0 0 1
1.59375 0.351562 -0.668646 0 0 1
1.60156 0.351562 -0.71729 0 0 1
1.61719 0.351562 -0.699556 0 0 1
1.78906 0.351562 -0.440206 0 0 1
1.8125 0.351562 -0.434161 0 0 1
1.49219 0.359375 -0.723565 0 0 1
1.51562 0.359375 -0.737916 0 0 1
1.52344 0.359375 -0.516111 0 0 1
1.53906 0.359375 -0.74516 0 0 1
1.55469 0.359375 -0.743755 0 0 1
1.5625 0.359375 -0.6634 0 0 1
1.57031 0.359375 -0.49279 0 0 1
1.58594 0.359375 -0.731075 0 0 1
1.59375 0.359375 -0.67717 0 0 1
1.60938 0.359375 -0.689049 0 0 1
1.78906 0.359375 -0.427864 0 0 1
1.79688 0.359375 -0.420223 0 0 1
1.80469 0.359375 -0.399828 0 0 1
1.46094 0.367188 -0.501125 0 0 1
1.5 0.367188 -0.73589 0 0 1
1.50781 0.367188 -0.677321 0 0 1
1.52344 0.367188 -0.672148 0 0 1
1.53125 0.367188 -0.745934 0 0 1
1.5625 0.367188 -0.49745 0 0 1
1.57031 0.367188 -0.488406 0 0 1
1.57812 0.367188 -0.671185 0 0 1
1.60156 0.367188 -0.706243 0 0 1
1.82031 0.367188 -0.4178 0 0 1
1.44531 0.375 -0.493696 0 0 1
1.47656 0.375 -0.703638 0 0 1
1.48438 0.375 -0.717266 0 0 1
1.49219 0.375 -0.738844 0 0 1
1.50781 0.375 -0.749784 0 0 1
1.53906 0.375 -0.751437 0 0 1
1.54688 0.375 -0.664115 0 0 1
1.55469 0.375 -0.746088 0 0 1
1.59375 0.375 -0.697248 0 0 1
1.4375 0.382812 -0.49085 0 0 1
1.45312 0.382812 -0.51367 0 0 1
1.46875 0.382812 -0.728994 0 0 1
1.47656 0.382812 -0.744044 0 0 1
1.49219 0.382812 -0.748665 0 0 1
1.50781 0.382812 -0.670326 0 0 1
1.57031 0.382812 -0.741928 0 0 1
1.58594 0.382812 -0.706307 0 0 1
1.42969 0.390625 -0.510162 0 0 1
1.45312 0.390625 -0.722935 0 0 1
1.46094 0.390625 -0.740062 0 0 1
1.46875 0.390625 -0.690748 0 0 1
1.48438 0.390625 -0.679034 0 0 1
1.49219 0.390625 -0.676065 0 0 1
1.52344 0.390625 -0.667198 0 0 1
1.53125 0.390625 -0.756431 0 0 1
1.53906 0.390625 -0.667039 0 0 1
1.54688 0.390625 -0.74988 0 0 1
1.57031 0.390625 -0.737354 0 0 1
1.58594 0.390625 -0.723435 0 0 1
1.41406 0.398438 -0.503271 0 0 1
1.4375 0.398438 -0.723177 0 0 1
1.44531 0.398438 -0.73871 0 0 1
1.47656 0.398438 -0.75449 0 0 1
1.5 0.398438 -0.758773 0 0 1
1.57812 0.398438 -0.707652 0 0 1
1.39844 0.40625 -0.495718 0 0 1
1.40625 0.40625 -0.506803 0 0 1
1.46094 0.40625 -0.755345 0 0 1
1.46875 0.40625 -0.674518 0 0 1
1.48438 0.40625 -0.76372 0 0 1
1.50781 0.40625 -0.763083 0 0 1
1.51562 0.40625 -0.668004 0 0 1
1.52344 0.40625 -0.760665 0 0 1
1.53906 0.40625 -0.756038 0 0 1
1.54688 0.40625 -0.751152 0 0 1
1.5625 0.40625 -0.737949 0 0 1
1.57031 0.40625 -0.727777 0 0 1
1.39844 0.414062 -0.515782 0 0 1
1.40625 0.414062 -0.530155 0 0 1
1.42969 0.414062 -0.725374 0 0 1
1.4375 0.414062 -0.744602 0 0 1
1.44531 0.414062 -0.694649 0 0 1
1.46094 0.414062 -0.760684 0 0 1
1.48438 0.414062 -0.669824 0 0 1
1.50781 0.414062 -0.767733 0 0 1
1.51562 0.414062 -0.670673 0 0 1
1.54688 0.414062 -0.686958 0 0 1
1.5625 0.414062 -0.701031 0 0 1
1.38281 0.421875 -0.501937 0 0 1
1.39062 0.421875 -0.517915 0 0 1
1.41406 0.421875 -0.539356 0 0 1
1.42188 0.421875 -0.738496 0 0 1
1.44531 0.421875 -0.760194 0 0 1
1.46094 0.421875 -0.67398 0 0 1
1.47656 0.421875 -0.770234 0 0 1
1.48438 0.421875 -0.769464 0 0 1
1.53125 0.421875 -0.681492 0 0 1
1.54688 0.421875 -0.750102 0 0 1
1.55469 0.421875 -0.737695 0 0 1
1.5625 0.421875 -0.714454 0 0 1
1.375 0.429688 -0.489976 0 0 1
1.42188 0.429688 -0.717316 0 0 1
1.42969 0.429688 -0.759531 0 0 1
1.45312 0.429688 -0.768708 0 0 1
1.49219 0.429688 -0.77278 0 0 1
1.51562 0.429688 -0.675261 0 0 1
1.53125 0.429688 -0.759771 0 0 1
1.53906 0.429688 -0.691391 0 0 1
1.55469 0.429688 -0.708732 0 0 1
1.375 0.4375 -0.517522 0 0 1
1.38281 0.4375 -0.528751 0 0 1
1.39062 0.4375 -0.538893 0 0 1
1.40625 0.4375 -0.727433 0 0 1
1.41406 0.4375 -0.749886 0 0 1
1.4375 0.4375 -0.54704 0 0 1
1.45312 0.4375 -0.774364 0 0 1
1.46094 0.4375 -0.673462 0 0 1
1.46875 0.4375 -0.775184 0 0 1
1.47656 0.4375 -0.53072 0 0 1
1.49219 0.4375 -0.517668 0 0 1
1.50781 0.4375 -0.767644 0 0 1
1.51562 0.4375 -0.481622 0 0 1
1.36719 0.445312 -0.481776 0 0 1
1.375 0.445312 -0.526699 0 0 1
1.40625 0.445312 -0.736696 0 0 1
1.42969 0.445312 -0.76846 0 0 1
1.44531 0.445312 -0.773342 0 0 1
1.46875 0.445312 -0.673025 0 0 1
1.48438 0.445312 -0.776859 0 0 1
1.5 0.445312 -0.772747 0 0 1
1.54688 0.445312 -0.735763 0 0 1
1.35938 0.453125 -0.524329 0 0 1
1.39844 0.453125 -0.741824 0 0 1
1.40625 0.453125 -0.756115 0 0 1
1.41406 0.453125 -0.694001 0 0 1
1.44531 0.453125 -0.677642 0 0 1
1.45312 0.453125 -0.778973 0 0 1
1.50781 0.453125 -0.769596 0 0 1
1.52344 0.453125 -0.757087 0 0 1
1.53906 0.453125 -0.72519 0 0 1
1.35156 0.460938 -0.524839 0 0 1
1.41406 0.460938 -0.767862 0 0 1
1.4375 0.460938 -0.778721 0 0 1
1.46094 0.460938 -0.676018 0 0 1
1.46875 0.460938 -0.782521 0 0 1
1.47656 0.460938 -0.677183 0 0 1
1.49219 0.460938 -0.774805 0 0 1
1.53125 0.460938 -0.737718 0 0 1
1.34375 0.46875 -0.512647 0 0 1
1.35156 0.46875 -0.53176 0 0 1
1.39062 0.46875 -0.738284 0 0 1
1.39844 0.46875 -0.756694 0 0 1
1.40625 0.46875 -0.698911 0 0 1
1.41406 0.46875 -0.774038 0 0 1
1.4375 0.46875 -0.682005 0 0 1
1.48438 0.46875 -0.77779 0 0 1
1.5 0.46875 -0.768191 0 0 1
1.51562 0.46875 -0.711559 0 0 1
1.36719 0.476562 -0.46203 0 0 1
1.375 0.476562 -0.54654 0 0 1
1.38281 0.476562 -0.723844 0 0 1
1.39062 0.476562 -0.549803 0 0 1
1.39844 0.476562 -0.767431 0 0 1
1.41406 0.476562 -0.691593 0 0 1
1.42969 0.476562 -0.781196 0 0 1
1.44531 0.476562 -0.784942 0 0 1
1.46875 0.476562 -0.682191 0 0 1
1.48438 0.476562 -0.690026 0 0 1
1.5 0.476562 -0.699351 0 0 1
1.51562 0.476562 -0.753835 0 0 1
1.52344 0.476562 -0.731914 0 0 1
1.33594 0.484375 -0.521881 0 0 1
1.34375 0.484375 -0.535765 0 0 1
1.38281 0.484375 -0.750479 0 0 1
1.42969 0.484375 -0.685678 0 0 1
1.45312 0.484375 -0.682246 0 0 1
1.46875 0.484375 -0.68879 0 0 1
1.48438 0.484375 -0.777559 0 0 1
1.5 0.484375 -0.768233 0 0 1
1.51562 0.484375 -0.743888 0 0 1
1.32812 0.492188 -0.529633 0 0 1
1.39062 0.492188 -0.774083 0 0 1
1.39844 0.492188 -0.703935 0 0 1
1.41406 0.492188 -0.782053 0 0 1
1.42969 0.492188 -0.785 0 0 1
1.48438 0.492188 -0.773029 0 0 1
1.50781 0.492188 -0.750531 0 0 1
1.32812 0.5 -0.496212 0 0 1
1.35156 0.5 -0.544129 0 0 1
1.36719 0.5 -0.736726 0 0 1
1.375 0.5 -0.767139 0 0 1
1.41406 0.5 -0.690629 0 0 1
1.44531 0.5 -0.785191 0 0 1
1.45312 0.5 -0.692597 0 0 1
1.46094 0.5 -0.78193 0 0 1
1.46875 0.5 -0.699266 0 0 1
1.47656 0.5 -0.776481 0 0 1
1.49219 0.5 -0.763019 0 0 1
1.5 0.5 -0.733194 0 0 1
1.32031 0.507812 -0.512791 0 0 1
1.33594 0.507812 -0.539905 0 0 1
1.36719 0.507812 -0.755808 0 0 1
1.38281 0.507812 -0.776655 0 0 1
1.39844 0.507812 -0.697654 0 0 1
1.40625 0.507812 -0.784068 0 0 1
1.42188 0.507812 -0.785059 0 0 1
1.5 0.507812 -0.743736 0 0 1
1.32031 0.515625 -0.534232 0 0 1
1.36719 0.515625 -0.724074 0 0 1
1.42969 0.515625 -0.693321 0 0 1
1.44531 0.515625 -0.6989 0 0 1
1.47656 0.515625 -0.764787 0 0 1
1.48438 0.515625 -0.733893 0 0 1
1.33594 0.523438 -0.471495 0 0 1
1.34375 0.523438 -0.553499 0 0 1
1.35938 0.523438 -0.740601 0 0 1
1.36719 0.523438 -0.764495 0 0 1
1.375 0.523438 -0.775413 0 0 1
1.39844 0.523438 -0.784879 0 0 1
1.40625 0.523438 -0.693196 0 0 1
1.4375 0.523438 -0.783446 0 0 1
1.45312 0.523438 -0.779196 0 0 1
1.46875 0.523438 -0.712485 0 0 1
1.47656 0.523438 -0.722321 0 0 1
1.3125 0.53125 -0.51193 0 0 1
1.32812 0.53125 -0.545923 0 0 1
1.35938 0.53125 -0.762727 0 0 1
1.375 0.53125 -0.703009 0 0 1
1.39062 0.53125 -0.785348 0 0 1
1.40625 0.53125 -0.788411 0 0 1
1.41406 0.53125 -0.785152 0 0 1
1.42188 0.53125 -0.694349 0 0 1
1.46875 0.53125 -0.766647 0 0 1
1.47656 0.53125 -0.755807 0 0 1
1.3125 0.539062 -0.538225 0 0 1
1.32031 0.539062 -0.551106 0 0 1
1.35156 0.539062 -0.767195 0 0 1
1.36719 0.539062 -0.779693 0 0 1
1.38281 0.539062 -0.787425 0 0 1
1.45312 0.539062 -0.771817 0 0 1
1.46875 0.539062 -0.752873 0 0 1
1.29688 0.546875 -0.522552 0 0 1
1.34375 0.546875 -0.744681 0 0 1
1.38281 0.546875 -0.692493 0 0 1
1.42188 0.546875 -0.783269 0 0 1
1.4375 0.546875 -0.774929 0 0 1
1.45312 0.546875 -0.764196 0 0 1
1.30469 0.554688 -0.547676 0 0 1
1.3125 0.554688 -0.563808 0 0 1
1.34375 0.554688 -0.768376 0 0 1
1.35938 0.554688 -0.696761 0 0 1
1.40625 0.554688 -0.788301 0 0 1
1.41406 0.554688 -0.696895 0 0 1
1.42188 0.554688 -0.702608 0 0 1
1.44531 0.554688 -0.714432 0 0 1
1.45312 0.554688 -0.721769 0 0 1
1.28906 0.5625 -0.545337 0 0 1
1.33594 0.5625 -0.7509 0 0 1
1.34375 0.5625 -0.770497 0 0 1
1.35938 0.5625 -0.782122 0 0 1
1.36719 0.5625 -0.69119 0 0 1
1.39062 0.5625 -0.792239 0 0 1
1.42969 0.5625 -0.776501 0 0 1
1.45312 0.5625 -0.745489 0 0 1
1.28125 0.570312 -0.525036 0 0 1
1.30469 0.570312 -0.566156 0 0 1
1.32812 0.570312 -0.735559 0 0 1
1.33594 0.570312 -0.766543 0 0 1
1.35156 0.570312 -0.694116 0 0 1
1.375 0.570312 -0.792473 0 0 1
1.39844 0.570312 -0.696017 0 0 1
1.41406 0.570312 -0.703518 0 0 1
1.4375 0.570312 -0.766253 0 0 1
1.45312 0.570312 -0.732513 0 0 1
1.28906 0.578125 -0.560358 0 0 1
1.32031 0.578125 -0.745105 0 0 1
1.34375 0.578125 -0.780803 0 0 1
1.35156 0.578125 -0.789148 0 0 1
1.35938 0.578125 -0.689621 0 0 1
1.39844 0.578125 -0.790227 0 0 1
1.44531 0.578125 -0.752138 0 0 1
1.28125 0.585938 -0.569739 0 0 1
1.30469 0.585938 -0.582303 0 0 1
1.32031 0.585938 -0.717691 0 0 1
1.32812 0.585938 -0.77263 0 0 1
1.39062 0.585938 -0.79282 0 0 1
1.39844 0.585938 -0.701656 0 0 1
1.42188 0.585938 -0.775561 0 0 1
1.44531 0.585938 -0.752076 0 0 1
1.27344 0.59375 -0.552956 0 0 1
1.30469 0.59375 -0.752565 0 0 1
1.3125 0.59375 -0.771807 0 0 1
1.34375 0.59375 -0.785685 0 0 1
1.35156 0.59375 -0.794575 0 0 1
1.375 0.59375 -0.795199 0 0 1
1.41406 0.59375 -0.771919 0 0 1
1.42969 0.59375 -0.763193 0 0 1
1.4375 0.59375 -0.716383 0 0 1
1.26562 0.601562 -0.563132 0 0 1
1.3125 0.601562 -0.707454 0 0 1
1.32031 0.601562 -0.698517 0 0 1
1.33594 0.601562 -0.78635 0 0 1
1.35938 0.601562 -0.691354 0 0 1
1.39062 0.601562 -0.785049 0 0 1
1.44531 0.601562 -0.73723 0 0 1
1.26562 0.609375 -0.576169 0 0 1
1.28906 0.609375 -0.747357 0 0 1
1.29688 0.609375 -0.765975 0 0 1
1.32031 0.609375 -0.78148 0 0 1
1.34375 0.609375 -0.794438 0 0 1
1.35156 0.609375 -0.689751 0 0 1
1.40625 0.609375 -0.772297 0 0 1
1.42969 0.609375 -0.76207 0 0 1
1.25 0.617188 -0.569574 0 0 1
1.28125 0.617188 -0.759487 0 0 1
1.29688 0.617188 -0.722898 0 0 1
1.30469 0.617188 -0.778486 0 0 1
1.3125 0.617188 -0.787228 0 0 1
1.32812 0.617188 -0.69492 0 0 1
1.34375 0.617188 -0.690982 0 0 1
1.35156 0.617188 -0.796669 0 0 1
1.35938 0.617188 -0.693901 0 0 1
1.39844 0.617188 -0.703474 0 0 1
1.40625 0.617188 -0.706245 0 0 1
1.42969 0.617188 -0.748231 0 0 1
1.4375 0.617188 -0.733483 0 0 1
1.23438 0.625 -0.549589 0 0 1
1.25781 0.625 -0.58223 0 0 1
1.27344 0.625 -0.754464 0 0 1
1.28125 0.625 -0.739137 0 0 1
1.28906 0.625 -0.775278 0 0 1
1.32812 0.625 -0.799296 0 0 1
1.39062 0.625 -0.783541 0 0 1
1.41406 0.625 -0.763173 0 0 1
1.24219 0.632812 -0.576448 0 0 1
1.27344 0.632812 -0.767831 0 0 1
1.28125 0.632812 -0.724428 0 0 1
1.29688 0.632812 -0.707321 0 0 1
1.30469 0.632812 -0.792546 0 0 1
1.3125 0.632812 -0.697413 0 0 1
1.34375 0.632812 -0.799039 0 0 1
1.38281 0.632812 -0.786507 0 0 1
1.39844 0.632812 -0.772675 0 0 1
1.42969 0.632812 -0.726184 0 0 1
1.22656 0.640625 -0.55188 0 0 1
1.28125 0.640625 -0.784896 0 0 1
1.3125 0.640625 -0.80029 0 0 1
1.32812 0.640625 -0.80144 0 0 1
1.33594 0.640625 -0.692011 0 0 1
1.36719 0.640625 -0.793767 0 0 1
1.41406 0.640625 -0.755032 0 0 1
1.22656 0.648438 -0.571075 0 0 1
1.23438 0.648438 -0.58495 0 0 1
1.25 0.648438 -0.595286 0 0 1
1.25781 0.648438 -0.76675 0 0 1
1.26562 0.648438 -0.7782 0 0 1
1.28125 0.648438 -0.711835 0 0 1
1.29688 0.648438 -0.798644 0 0 1
1.32031 0.648438 -0.693683 0 0 1
1.33594 0.648438 -0.802024 0 0 1
1.35156 0.648438 -0.798585 0 0 1
1.39062 0.648438 -0.778057 0 0 1
1.40625 0.648438 -0.759168 0 0 1
1.41406 0.648438 -0.733672 0 0 1
1.21875 0.65625 -0.582648 0 0 1
1.25781 0.65625 -0.602856 0 0 1
1.27344 0.65625 -0.794199 0 0 1
1.28906 0.65625 -0.603791 0 0 1
1.32031 0.65625 -0.803998 0 0 1
1.32812 0.65625 -0.692115 0 0 1
1.35156 0.65625 -0.694535 0 0 1
1.36719 0.65625 -0.69877 0 0 1
1.375 0.65625 -0.524495 0 0 1
1.21094 0.664062 -0.573702 0 0 1
1.22656 0.664062 -0.593821 0 0 1
1.25 0.664062 -0.770148 0 0 1
1.26562 0.664062 -0.791172 0 0 1
1.27344 0.664062 -0.706682 0 0 1
1.28125 0.664062 -0.80114 0 0 1
1.30469 0.664062 -0.695118 0 0 1
1.33594 0.664062 -0.8066 0 0 1
1.375 0.664062 -0.787881 0 0 1
1.39062 0.664062 -0.774155 0 0 1
1.40625 0.664062 -0.741342 0 0 1
1.21094 0.671875 -0.587393 0 0 1
1.24219 0.671875 -0.774953 0 0 1
1.25 0.671875 -0.791083 0 0 1
1.25781 0.671875 -0.718284 0 0 1
1.29688 0.671875 -0.80798 0 0 1
1.32031 0.671875 -0.808047 0 0 1
1.34375 0.671875 -0.804775 0 0 1
1.36719 0.671875 -0.797558 0 0 1
1.21094 0.679688 -0.534418 0 0 1
1.23438 0.679688 -0.784934 0 0 1
1.25 0.679688 -0.713916 0 0 1
1.26562 0.679688 -0.615557 0 0 1
1.27344 0.679688 -0.808253 0 0 1
1.28125 0.679688 -0.698137 0 0 1
1.29688 0.679688 -0.696331 0 0 1
1.33594 0.679688 -0.694821 0 0 1
1.38281 0.679688 -0.779271 0 0 1
1.39062 0.679688 -0.755355 0 0 1
1.1875 0.6875 -0.562914 0 0 1
1.19531 0.6875 -0.579287 0 0 1
1.21094 0.6875 -0.599032 0 0 1
1.22656 0.6875 -0.771579 0 0 1
1.24219 0.6875 -0.719658 0 0 1
1.28906 0.6875 -0.81221 0 0 1
1.30469 0.6875 -0.813825 0 0 1
1.33594 0.6875 -0.810389 0 0 1
1.35156 0.6875 -0.805721 0 0 1
1.36719 0.6875 -0.79386 0 0 1
1.1875 0.695312 -0.583489 0 0 1
1.22656 0.695312 -0.756679 0 0 1
1.23438 0.695312 -0.794613 0 0 1
1.25 0.695312 -0.807548 0 0 1
1.25781 0.695312 -0.703157 0 0 1
1.26562 0.695312 -0.8147 0 0 1
1.27344 0.695312 -0.697644 0 0 1
1.29688 0.695312 -0.693854 0 0 1
1.32812 0.695312 -0.814691 0 0 1
1.38281 0.695312 -0.774616 0 0 1
1.1875 0.703125 -0.548208 0 0 1
1.19531 0.703125 -0.607859 0 0 1
1.21875 0.703125 -0.783539 0 0 1
1.23438 0.703125 -0.718234 0 0 1
1.24219 0.703125 -0.810137 0 0 1
1.28906 0.703125 -0.693355 0 0 1
1.29688 0.703125 -0.81872 0 0 1
1.34375 0.703125 -0.810776 0 0 1
1.36719 0.703125 -0.792434 0 0 1
1.17969 0.710938 -0.593846 0 0 1
1.20312 0.710938 -0.618682 0 0 1
1.21094 0.710938 -0.770457 0 0 1
1.21875 0.710938 -0.72106 0 0 1
1.23438 0.710938 -0.712299 0 0 1
1.27344 0.710938 -0.694471 0 0 1
1.28125 0.710938 -0.819747 0 0 1
1.32031 0.710938 -0.818224 0 0 1
1.35938 0.710938 -0.80107 0 0 1
1.36719 0.710938 -0.790183 0 0 1
1.375 0.710938 -0.778747 0 0 1
1.38281 0.710938 -0.761279 0 0 1
1.14844 0.71875 -0.329933 0 0 1
1.17188 0.71875 -0.581283 0 0 1
1.17969 0.71875 -0.612044 0 0 1
1.20312 0.71875 -0.769637 0 0 1
1.21094 0.71875 -0.749987 0 0 1
1.22656 0.71875 -0.808834 0 0 1
1.24219 0.71875 -0.630895 0 0 1
1.25 0.71875 -0.699288 0 0 1
1.25781 0.71875 -0.819234 0 0 1
1.26562 0.71875 -0.694234 0 0 1
1.29688 0.71875 -0.694634 0 0 1
1.33594 0.71875 -0.815067 0 0 1
1.375 0.71875 -0.74995 0 0 1
1.16406 0.726562 -0.59189 0 0 1
1.19531 0.726562 -0.761445 0 0 1
1.20312 0.726562 -0.745607 0 0 1
1.21875 0.726562 -0.71389 0 0 1
1.23438 0.726562 -0.702746 0 0 1
1.26562 0.726562 -0.825962 0 0 1
1.28125 0.726562 -0.69273 0 0 1
1.29688 0.726562 -0.826376 0 0 1
1.3125 0.726562 -0.823727 0 0 1
1.36719 0.726562 -0.789057 0 0 1
1.375 0.726562 -0.751832 0 0 1
1.16406 0.734375 -0.565004 0 0 1
1.17188 0.734375 -0.604429 0 0 1
1.17969 0.734375 -0.621507 0 0 1
1.19531 0.734375 -0.778531 0 0 1
1.20312 0.734375 -0.796827 0 0 1
1.21094 0.734375 -0.811813 0 0 1
1.22656 0.734375 -0.702544 0 0 1
1.25 0.734375 -0.826402 0 0 1
1.35156 0.734375 -0.807301 0 0 1
1.36719 0.734375 -0.761199 0 0 1
1.14844 0.742188 -0.326405 0 0 1
1.15625 0.742188 -0.598522 0 0 1
1.17969 0.742188 -0.525138 0 0 1
1.1875 0.742188 -0.787294 0 0 1
1.19531 0.742188 -0.735419 0 0 1
1.20312 0.742188 -0.802727 0 0 1
1.22656 0.742188 -0.639507 0 0 1
1.23438 0.742188 -0.827222 0 0 1
1.24219 0.742188 -0.695076 0 0 1
1.26562 0.742188 -0.691778 0 0 1
1.27344 0.742188 -1.06153 0 0 1
1.30469 0.742188 -0.828886 0 0 1
1.3125 0.742188 -1.06583 0 0 1
1.32812 0.742188 -0.818456 0 0 1
1.34375 0.742188 -0.713603 0 0 1
1.35938 0.742188 -0.792843 0 0 1
1.36719 0.742188 -0.744019 0 0 1
1.13281 0.75 -0.322275 0 0 1
1.16406 0.75 -0.541732 0 0 1
1.17969 0.75 -0.754664 0 0 1
1.1875 0.75 -0.796996 0 0 1
1.19531 0.75 -0.724293 0 0 1
1.21094 0.75 -0.822414 0 0 1
1.22656 0.75 -0.697479 0 0 1
1.23438 0.75 -0.645122 0 0 1
1.24219 0.75 -0.831161 0 0 1
1.25 0.75 -0.639043 0 0 1
1.25781 0.75 -0.631314 0 0 1
1.26562 0.75 -1.05995 0 0 1
1.27344 0.75 -0.62043 0 0 1
1.28125 0.75 -0.832386 0 0 1
1.29688 0.75 -0.7003 0 0 1
1.30469 0.75 -1.06481 0 0 1
1.32031 0.75 -1.07048 0 0 1
1.34375 0.75 -0.805832 0 0 1
1.35156 0.75 -1.06657 0 0 1
1.36719 0.75 -0.756034 0 0 1
1.14844 0.757812 -0.574831 0 0 1
1.15625 0.757812 -0.609314 0 0 1
1.16406 0.757812 -0.532158 0 0 1
1.17188 0.757812 -0.767039 0 0 1
1.17969 0.757812 -0.781013 0 0 1
1.1875 0.757812 -0.640619 0 0 1
1.19531 0.757812 -0.64547 0 0 1
1.21875 0.757812 -0.648149 0 0 1
1.23438 0.757812 -0.833786 0 0 1
1.24219 0.757812 -0.691277 0 0 1
1.25781 0.757812 -0.835287 0 0 1
1.27344 0.757812 -1.06496 0 0 1
1.29688 0.757812 -1.06468 0 0 1
1.30469 0.757812 -0.831065 0 0 1
1.32812 0.757812 -0.820849 0 0 1
1.35938 0.757812 -0.774265 0 0 1
1.125 0.765625 -0.344859 0 0 1
1.14844 0.765625 -0.619022 0 0 1
1.15625 0.765625 -0.530065 0 0 1
1.16406 0.765625 -0.767465 0 0 1
1.17969 0.765625 -0.5127 0 0 1
1.1875 0.765625 -0.814835 0 0 1
1.19531 0.765625 -0.708756 0 0 1
1.21094 0.765625 -0.703482 0 0 1
1.21875 0.765625 -0.83341 0 0 1
1.23438 0.765625 -0.648029 0 0 1
1.25781 0.765625 -1.06037 0 0 1
1.27344 0.765625 -0.835961 0 0 1
1.28906 0.765625 -1.06747 0 0 1
1.30469 0.765625 -1.07518 0 0 1
1.32812 0.765625 -1.07128 0 0 1
1.34375 0.765625 -1.06544 0 0 1
1.35938 0.765625 -0.763134 0 0 1
1.11719 0.773438 -0.325895 0 0 1
1.14062 0.773438 -0.611162 0 0 1
1.15625 0.773438 -0.767784 0 0 1
1.16406 0.773438 -0.790808 0 0 1
1.17188 0.773438 -0.808225 0 0 1
1.17969 0.773438 -0.721625 0 0 1
1.1875 0.773438 -0.652855 0 0 1
1.19531 0.773438 -0.503897 0 0 1
1.21875 0.773438 -0.693523 0 0 1
1.22656 0.773438 -0.837868 0 0 1
1.24219 0.773438 -0.690527 0 0 1
1.25 0.773438 -0.640964 0 0 1
1.25781 0.773438 -1.0715 0 0 1
1.26562 0.773438 -1.06448 0 0 1
1.29688 0.773438 -0.834886 0 0 1
1.3125 0.773438 -0.828136 0 0 1
1.32812 0.773438 -1.06559 0 0 1
1.33594 0.773438 -0.803428 0 0 1
1.35156 0.773438 -0.78711 0 0 1
1.10156 0.78125 -0.336921 0 0 1
1.11719 0.78125 -0.706145 0 0 1
1.125 0.78125 -0.603264 0 0 1
1.13281 0.78125 -0.624008 0 0 1
1.14062 0.78125 -0.553523 0 0 1
1.14844 0.78125 -0.764197 0 0 1
1.15625 0.78125 -0.803222 0 0 1
1.16406 0.78125 -0.51933 0 0 1
1.17188 0.78125 -0.822645 0 0 1
1.1875 0.78125 -0.711059 0 0 1
1.19531 0.78125 -0.834847 0 0 1
1.23438 0.78125 -0.689251 0 0 1
1.25 0.78125 -0.690836 0 0 1
1.26562 0.78125 -0.694302 0 0 1
1.27344 0.78125 -0.839883 0 0 1
1.28125 0.78125 -1.07954 0 0 1
1.29688 0.78125 -1.07443 0 0 1
1.3125 0.78125 -1.07541 0 0 1
1.32812 0.78125 -0.812814 0 0 1
1.33594 0.78125 -1.07379 0 0 1
1.34375 0.78125 -0.792497 0 0 1
1.09375 0.789062 -0.68238 0 0 1
1.10156 0.789062 -0.739984 0 0 1
1.11719 0.789062 -0.763811 0 0 1
1.125 0.789062 -0.77722 0 0 1
1.13281 0.789062 -0.757764 0 0 1
1.14062 0.789062 -0.80347 0 0 1
1.14844 0.789062 -0.792855 0 0 1
1.17969 0.789062 -0.832489 0 0 1
1.25 0.789062 -1.05916 0 0 1
1.26562 0.789062 -1.06849 0 0 1
1.32031 0.789062 -1.08088 0 0 1
1.36719 0.789062 -1.07056 0 0 1
1.07812 0.796875 -0.673475 0 0 1
1.08594 0.796875 -0.703968 0 0 1
1.09375 0.796875 -0.765856 0 0 1
1.10156 0.796875 -0.775393 0 0 1
1.10938 0.796875 -0.791021 0 0 1
1.13281 0.796875 -0.794085 0 0 1
1.16406 0.796875 -0.829038 0 0 1
1.23438 0.796875 -1.06195 0 0 1
1.24219 0.796875 -1.07147 0 0 1
1.30469 0.796875 -1.08369 0 0 1
1.33594 0.796875 -1.07014 0 0 1
1.34375 0.796875 -1.07825 0 0 1
1.07031 0.804688 -0.658884 0 0 1
1.07812 0.804688 -0.752397 0 0 1
1.08594 0.804688 -0.773526 0 0 1
1.09375 0.804688 -0.786056 0 0 1
1.11719 0.804688 -0.803583 0 0 1
1.13281 0.804688 -0.809871 0 0 1
1.15625 0.804688 -0.831798 0 0 1
1.19531 0.804688 -0.845181 0 0 1
1.21875 0.804688 -0.846727 0 0 1
1.23438 0.804688 -0.84877 0 0 1
1.25 0.804688 -1.08068 0 0 1
1.25781 0.804688 -1.05808 0 0 1
1.26562 0.804688 -0.843496 0 0 1
1.27344 0.804688 -1.06452 0 0 1
1.28906 0.804688 -1.08449 0 0 1
1.30469 0.804688 -0.82841 0 0 1
1.32031 0.804688 -1.07986 0 0 1
1.33594 0.804688 -0.7942 0 0 1
1.0625 0.8125 -0.69006 0 0 1
1.07031 0.8125 -0.728657 0 0 1
1.07812 0.8125 -0.783495 0 0 1
1.09375 0.8125 -0.795908 0 0 1
1.10938 0.8125 -0.805538 0 0 1
1.11719 0.8125 -0.814273 0 0 1
1.22656 0.8125 -1.05784 0 0 1
1.23438 0.8125 -1.07823 0 0 1
1.24219 0.8125 -1.05508 0 0 1
1.27344 0.8125 -1.08708 0 0 1
1.33594 0.8125 -1.07217 0 0 1
1.03906 0.820312 -0.659893 0 0 1
1.04688 0.820312 -0.68653 0 0 1
1.05469 0.820312 -0.721477 0 0 1
1.0625 0.820312 -0.762215 0 0 1
1.10938 0.820312 -0.820461 0 0 1
1.13281 0.820312 -0.825506 0 0 1
1.14844 0.820312 -0.835231 0 0 1
1.17969 0.820312 -0.851057 0 0 1
1.20312 0.820312 -0.850882 0 0 1
1.21875 0.820312 -1.07306 0 0 1
1.25 0.820312 -1.08636 0 0 1
1.26562 0.820312 -0.843714 0 0 1
1.28906 0.820312 -1.08475 0 0 1
1.29688 0.820312 -0.830967 0 0 1
1.30469 0.820312 -1.08133 0 0 1
1.32031 0.820312 -1.06762 0 0 1
1.32812 0.820312 -0.789734 0 0 1
1.03125 0.828125 -0.677032 0 0 1
1.04688 0.828125 -0.734761 0 0 1
1.05469 0.828125 -0.787428 0 0 1
1.07031 0.828125 -0.801262 0 0 1
1.08594 0.828125 -0.814266 0 0 1
1.11719 0.828125 -0.827648 0 0 1
1.21875 0.828125 -1.05139 0 0 1
1.23438 0.828125 -1.08655 0 0 1
1.27344 0.828125 -1.06215 0 0 1
1.28906 0.828125 -1.06388 0 0 1
1.02344 0.835938 -0.667752 0 0 1
1.03125 0.835938 -0.725268 0 0 1
1.03906 0.835938 -0.740145 0 0 1
1.04688 0.835938 -0.756685 0 0 1
1.13281 0.835938 -0.837163 0 0 1
1.14062 0.835938 -0.842063 0 0 1
1.17969 0.835938 -0.853422 0 0 1
1.21094 0.835938 -1.07807 0 0 1
1.21875 0.835938 -1.08592 0 0 1
1.25 0.835938 -1.05722 0 0 1
1.27344 0.835938 -1.08993 0 0 1
1.28906 0.835938 -0.827979 0 0 1
1.30469 0.835938 -1.08499 0 0 1
1.32031 0.835938 -0.778655 0 0 1
1.02344 0.84375 -0.708576 0 0 1
1.03125 0.84375 -0.753463 0 0 1
1.03906 0.84375 -0.77011 0 0 1
1.04688 0.84375 -0.784379 0 0 1
1.0625 0.84375 -0.810212 0 0 1
1.07812 0.84375 -0.819247 0 0 1
1.11719 0.84375 -0.838143 0 0 1
1.14062 0.84375 -0.847637 0 0 1
1.20312 0.84375 -1.05703 0 0 1
1.22656 0.84375 -1.04945 0 0 1
1.24219 0.84375 -0.849581 0 0 1
1.26562 0.84375 -1.08905 0 0 1
1.28906 0.84375 -1.0616 0 0 1
1.30469 0.84375 -1.06795 0 0 1
1.3125 0.84375 -0.764308 0 0 1
1.01562 0.851562 -0.683249 0 0 1
1.02344 0.851562 -0.761515 0 0 1
1.03125 0.851562 -0.778462 0 0 1
1.09375 0.851562 -0.832651 0 0 1
1.17188 0.851562 -0.855706 0 0 1
1.17969 0.851562 -0.856253 0 0 1
1.19531 0.851562 -1.07096 0 0 1
1.20312 0.851562 -1.08485 0 0 1
1.21875 0.851562 -1.08897 0 0 1
1.26562 0.851562 -0.837794 0 0 1
1.28125 0.851562 -1.08578 0 0 1
1.29688 0.851562 -0.817547 0 0 1
1.30469 0.851562 -0.807514 0 0 1
1.00781 0.859375 -0.705357 0 0 1
1.01562 0.859375 -0.75071 0 0 1
1.03906 0.859375 -0.802643 0 0 1
1.0625 0.859375 -0.819918 0 0 1
1.07812 0.859375 -0.827868 0 0 1
1.10938 0.859375 -0.839932 0 0 1
1.125 0.859375 -0.845151 0 0 1
1.14844 0.859375 -0.853132 0 0 1
1.1875 0.859375 -1.08385 0 0 1
1.21094 0.859375 -1.04662 0 0 1
1.23438 0.859375 -1.04678 0 0 1
1.26562 0.859375 -1.04493 0 0 1
1.27344 0.859375 -1.08448 0 0 1
1.28906 0.859375 -1.07217 0 0 1
1.3125 0.859375 -1.05263 0 0 1
1.34375 0.859375 -1.05609 0 0 1
1.00781 0.867188 -0.689613 0 0 1
1.01562 0.867188 -0.771455 0 0 1
1.17188 0.867188 -1.06606 0 0 1
1.1875 0.867188 -1.05105 0 0 1
1.19531 0.867188 -1.0901 0 0 1
1.23438 0.867188 -1.0886 0 0 1
1.25781 0.867188 -1.08292 0 0 1
1.28125 0.867188 -1.04455 0 0 1
1.29688 0.867188 -1.05754 0 0 1
1.3125 0.867188 -1.06038 0 0 1
1.32031 0.867188 -1.04376 0 0 1
1 0.875 -0.696086 0 0 1
1.00781 0.875 -0.753037 0 0 1
1.02344 0.875 -0.789805 0 0 1
1.03906 0.875 -0.816702 0 0 1
1.09375 0.875 -0.840162 0 0 1
1.15625 0.875 -1.05948 0 0 1
1.16406 0.875 -1.076 0 0 1
1.17188 0.875 -1.04684 0 0 1
1.1875 0.875 -1.08853 0 0 1
1.20312 0.875 -1.04613 0 0 1
1.21875 0.875 -1.08861 0 0 1
1.25 0.875 -1.03947 0 0 1
1.27344 0.875 -1.07131 0 0 1
1.29688 0.875 -1.04382 0 0 1
1.3125 0.875 -1.05389 0 0 1
1.32812 0.875 -1.04992 0 0 1
0.992188 0.882812 -0.675627 0 0 1
1 0.882812 -0.709652 0 0 1
1.00781 0.882812 -0.765981 0 0 1
1.01562 0.882812 -0.787127 0 0 1
1.03125 0.882812 -0.811108 0 0 1
1.05469 0.882812 -0.830202 0 0 1
1.08594 0.882812 -0.838506 0 0 1
1.125 0.882812 -0.85049 0 0 1
1.14844 0.882812 -1.06546 0 0 1
1.15625 0.882812 -1.0358 0 0 1
1.17969 0.882812 -1.0374 0 0 1
1.20312 0.882812 -1.0424 0 0 1
1.21094 0.882812 -1.08878 0 0 1
1.24219 0.882812 -1.07468 0 0 1
1.26562 0.882812 -1.04195 0 0 1
1.28906 0.882812 -1.0601 0 0 1
0.984375 0.890625 -0.415362 0 0 1
0.992188 0.890625 -0.699736 0 0 1
1 0.890625 -0.748256 0 0 1
1.02344 0.890625 -0.80424 0 0 1
1.04688 0.890625 -0.82716 0 0 1
1.07812 0.890625 -0.841504 0 0 1
1.125 0.890625 -1.03604 0 0 1
1.13281 0.890625 -1.05683 0 0 1
1.14062 0.890625 -0.858026 0 0 1
1.17188 0.890625 -1.08262 0 0 1
1.19531 0.890625 -1.08705 0 0 1
1.21875 0.890625 -0.849063 0 0 1
1.25781 0.890625 -0.828349 0 0 1
1.26562 0.890625 -1.0599 0 0 1
1.27344 0.890625 -0.778187 0 0 1
0.960938 0.898438 -0.413601 0 0 1
0.96875 0.898438 -0.431911 0 0 1
0.992188 0.898438 -0.664635 0 0 1
1.00781 0.898438 -0.77416 0 0 1
1.03125 0.898438 -0.820037 0 0 1
1.0625 0.898438 -0.840718 0 0 1
1.10938 0.898438 -1.04688 0 0 1
1.11719 0.898438 -1.06038 0 0 1
1.13281 0.898438 -1.06537 0 0 1
1.14062 0.898438 -1.07143 0 0 1
1.14844 0.898438 -1.0268 0 0 1
1.15625 0.898438 -1.02832 0 0 1
1.17188 0.898438 -1.03184 0 0 1
1.17969 0.898438 -1.0838 0 0 1
1.20312 0.898438 -1.04848 0 0 1
1.21875 0.898438 -1.08174 0 0 1
1.23438 0.898438 -1.06348 0 0 1
1.25 0.898438 -0.83002 0 0 1
1.27344 0.898438 -0.7963 0 0 1
0.953125 0.90625 -0.433037 0 0 1
0.984375 0.90625 -0.679958 0 0 1
0.992188 0.90625 -0.727336 0 0 1
1 0.90625 -0.753985 0 0 1
1.00781 0.90625 -0.792877 0 0 1
1.02344 0.90625 -0.593181 0 0 1
1.03906 0.90625 -0.580331 0 0 1
1.05469 0.90625 -0.569157 0 0 1
1.08594 0.90625 -0.851255 0 0 1
1.09375 0.90625 -1.03993 0 0 1
1.10938 0.90625 -1.05814 0 0 1
1.14062 0.90625 -1.02194 0 0 1
1.15625 0.90625 -1.07852 0 0 1
1.17188 0.90625 -0.863264 0 0 1
1.19531 0.90625 -1.07969 0 0 1
1.21094 0.90625 -1.07243 0 0 1
1.21875 0.90625 -1.05935 0 0 1
1.23438 0.90625 -0.836032 0 0 1
1.26562 0.90625 -0.791879 0 0 1
0.945312 0.914062 -0.424104 0 0 1
0.960938 0.914062 -0.443129 0 0 1
0.984375 0.914062 -0.693728 0 0 1
0.992188 0.914062 -0.712645 0 0 1
1.00781 0.914062 -0.602169 0 0 1
1.02344 0.914062 -0.820068 0 0 1
1.03125 0.914062 -0.829279 0 0 1
1.04688 0.914062 -0.838889 0 0 1
1.07031 0.914062 -0.849619 0 0 1
1.07812 0.914062 -1.03032 0 0 1
1.09375 0.914062 -1.05831 0 0 1
1.11719 0.914062 -0.863799 0 0 1
1.13281 0.914062 -1.07254 0 0 1
1.16406 0.914062 -1.02854 0 0 1
1.17188 0.914062 -1.07915 0 0 1
1.17969 0.914062 -1.03801 0 0 1
1.1875 0.914062 -1.07942 0 0 1
1.20312 0.914062 -1.06923 0 0 1
1.21094 0.914062 -1.0605 0 0 1
1.24219 0.914062 -0.823213 0 0 1
1.25 0.914062 -0.810007 0 0 1
1.25781 0.914062 -0.794613 0 0 1
0.929688 0.921875 -0.425596 0 0 1
0.9375 0.921875 -0.440017 0 0 1
0.992188 0.921875 -0.779113 0 0 1
1.00781 0.921875 -0.80661 0 0 1
1.01562 0.921875 -0.589217 0 0 1
1.03906 0.921875 -0.567509 0 0 1
1.04688 0.921875 -0.841373 0 0 1
1.07812 0.921875 -1.0131 0 0 1
1.08594 0.921875 -1.05223 0 0 1
1.09375 0.921875 -1.00961 0 0 1
1.10938 0.921875 -1.06633 0 0 1
1.11719 0.921875 -1.01167 0 0 1
1.13281 0.921875 -0.865329 0 0 1
1.14062 0.921875 -1.01794 0 0 1
1.15625 0.921875 -1.07657 0 0 1
1.17188 0.921875 -0.861799 0 0 1
1.1875 0.921875 -1.0654 0 0 1
1.19531 0.921875 -0.854901 0 0 1
1.24219 0.921875 -0.773329 0 0 1
0.929688 0.929688 -0.416417 0 0 1
0.9375 0.929688 -0.453189 0 0 1
0.976562 0.929688 -0.677726 0 0 1
0.984375 0.929688 -0.708883 0 0 1
0.992188 0.929688 -0.616211 0 0 1
1 0.929688 -0.79641 0 0 1
1.00781 0.929688 -0.816753 0 0 1
1.01562 0.929688 -0.826953 0 0 1
1.02344 0.929688 -0.836991 0 0 1
1.0625 0.929688 -1.01923 0 0 1
1.07031 0.929688 -1.04121 0 0 1
1.07812 0.929688 -0.857971 0 0 1
1.09375 0.929688 -0.862275 0 0 1
1.10938 0.929688 -1.00748 0 0 1
1.125 0.929688 -1.07262 0 0 1
1.14844 0.929688 -1.02663 0 0 1
1.15625 0.929688 -0.865226 0 0 1
1.16406 0.929688 -1.0374 0 0 1
1.17188 0.929688 -1.07255 0 0 1
1.17969 0.929688 -1.05059 0 0 1
1.20312 0.929688 -0.845921 0 0 1
1.21875 0.929688 -0.833625 0 0 1
1.24219 0.929688 -0.807596 0 0 1
0.914062 0.9375 -0.44848 0 0 1
0.96875 0.9375 -0.653281 0 0 1
0.976562 0.9375 -0.625998 0 0 1
0.984375 0.9375 -0.774145 0 0 1
0.992188 0.9375 -0.790292 0 0 1
1 0.9375 -0.596901 0 0 1
1.01562 0.9375 -0.581885 0 0 1
1.03125 0.9375 -0.8456 0 0 1
1.04688 0.9375 -1.02838 0 0 1
1.05469 0.9375 -1.04561 0 0 1
1.07031 0.9375 -0.857572 0 0 1
1.07812 0.9375 -1.0623 0 0 1
1.10156 0.9375 -1.06816 0 0 1
1.10938 0.9375 -1.07087 0 0 1
1.15625 0.9375 -1.07028 0 0 1
1.16406 0.9375 -1.06082 0 0 1
1.17188 0.9375 -0.858772 0 0 1
1.24219 0.9375 -0.678897 0 0 1
0.90625 0.945312 -0.429108 0 0 1
0.921875 0.945312 -0.464365 0 0 1
0.96875 0.945312 -0.698349 0 0 1
0.984375 0.945312 -0.74906 0 0 1
0.992188 0.945312 -0.799457 0 0 1
1 0.945312 -0.814392 0 0 1
1.03906 0.945312 -1.02032 0 0 1
1.0625 0.945312 -1.05828 0 0 1
1.10938 0.945312 -1.00458 0 0 1
1.13281 0.945312 -1.07104 0 0 1
1.14844 0.945312 -1.03122 0 0 1
1.15625 0.945312 -1.04603 0 0 1
1.1875 0.945312 -0.853056 0 0 1
1.20312 0.945312 -0.838306 0 0 1
1.21094 0.945312 -0.826358 0 0 1
1.21875 0.945312 -0.775271 0 0 1
1.22656 0.945312 -0.799365 0 0 1
1.24219 0.945312 -0.686828 0 0 1
0.898438 0.953125 -0.441733 0 0 1
0.90625 0.953125 -0.464753 0 0 1
0.921875 0.953125 -0.473515 0 0 1
0.9375 0.953125 -0.478108 0 0 1
0.960938 0.953125 -0.664172 0 0 1
0.96875 0.953125 -0.709234 0 0 1
0.976562 0.953125 -0.734164 0 0 1
0.984375 0.953125 -0.782138 0 0 1
0.992188 0.953125 -0.59411 0 0 1
1.00781 0.953125 -0.834718 0 0 1
1.02344 0.953125 -1.03339 0 0 1
1.03125 0.953125 -0.569128 0 0 1
1.03906 0.953125 -1.05108 0 0 1
1.04688 0.953125 -0.562897 0 0 1
1.0625 0.953125 -0.859528 0 0 1
1.07812 0.953125 -0.994151 0 0 1
1.08594 0.953125 -1.06698 0 0 1
1.09375 0.953125 -0.997883 0 0 1
1.10156 0.953125 -1.06877 0 0 1
1.11719 0.953125 -1.01058 0 0 1
1.125 0.953125 -1.06885 0 0 1
1.14062 0.953125 -1.06095 0 0 1
1.1875 0.953125 -0.84522 0 0 1
1.21094 0.953125 -0.813493 0 0 1
1.21875 0.953125 -0.748293 0 0 1
1.22656 0.953125 -0.733655 0 0 1
1.23438 0.953125 -0.709175 0 0 1
0.890625 0.960938 -0.452431 0 0 1
0.914062 0.960938 -0.481879 0 0 1
0.960938 0.960938 -0.672722 0 0 1
0.96875 0.960938 -0.615124 0 0 1
0.976562 0.960938 -0.763188 0 0 1
0.984375 0.960938 -0.81138 0 0 1
1.00781 0.960938 -1.0177 0 0 1
1.03125 0.960938 -1.05079 0 0 1
1.07031 0.960938 -1.0656 0 0 1
1.09375 0.960938 -0.867021 0 0 1
1.125 0.960938 -1.05877 0 0 1
1.13281 0.960938 -1.03266 0 0 1
1.14062 0.960938 -1.0447 0 0 1
1.17969 0.960938 -0.845931 0 0 1
1.21094 0.960938 -0.766595 0 0 1
1.22656 0.960938 -0.695134 0 0 1
0.953125 0.96875 -0.69129 0 0 1
0.960938 0.96875 -0.718248 0 0 1
0.96875 0.96875 -0.737597 0 0 1
0.976562 0.96875 -0.799856 0 0 1
0.992188 0.96875 -0.825606 0 0 1
1 0.96875 -1.00695 0 0 1
1.00781 0.96875 -1.03087 0 0 1
1.02344 0.96875 -0.986919 0 0 1
1.03906 0.96875 -0.866604 0 0 1
1.05469 0.96875 -0.868128 0 0 1
1.07031 0.96875 -0.870208 0 0 1
1.10156 0.96875 -1.06538 0 0 1
1.13281 0.96875 -1.04543 0 0 1
1.14844 0.96875 -0.862459 0 0 1
1.17188 0.96875 -0.854097 0 0 1
1.1875 0.96875 -0.837342 0 0 1
1.21875 0.96875 -0.74788 0 0 1
0.875 0.976562 -0.469316 0 0 1
0.890625 0.976562 -0.481632 0 0 1
0.945312 0.976562 -0.709552 0 0 1
0.960938 0.976562 -0.751552 0 0 1
0.976562 0.976562 -0.593715 0 0 1
0.992188 0.976562 -1.01397 0 0 1
1.01562 0.976562 -0.854223 0 0 1
1.03906 0.976562 -1.05796 0 0 1
1.07812 0.976562 -0.988714 0 0 1
1.08594 0.976562 -1.06521 0 0 1
1.09375 0.976562 -0.868379 0 0 1
1.10156 0.976562 -1.00512 0 0 1
1.10938 0.976562 -1.05924 0 0 1
1.11719 0.976562 -0.865469 0 0 1
1.17188 0.976562 -0.845341 0 0 1
1.19531 0.976562 -0.813609 0 0 1
1.20312 0.976562 -0.784813 0 0 1
1.21094 0.976562 -0.684309 0 0 1
0.867188 0.984375 -0.458763 0 0 1
0.890625 0.984375 -0.490926 0 0 1
0.90625 0.984375 -0.495967 0 0 1
0.9375 0.984375 -0.690839 0 0 1
0.945312 0.984375 -0.643891 0 0 1
0.953125 0.984375 -0.624303 0 0 1
0.960938 0.984375 -0.782564 0 0 1
0.96875 0.984375 -0.807899 0 0 1
0.976562 0.984375 -0.82479 0 0 1
0.984375 0.984375 -0.993141 0 0 1
0.992188 0.984375 -1.0281 0 0 1
1 0.984375 -1.03669 0 0 1
1.01562 0.984375 -1.04637 0 0 1
1.02344 0.984375 -1.05442 0 0 1
1.04688 0.984375 -0.870919 0 0 1
1.05469 0.984375 -1.06378 0 0 1
1.08594 0.984375 -0.997817 0 0 1
1.10156 0.984375 -0.867725 0 0 1
1.10938 0.984375 -1.04379 0 0 1
1.15625 0.984375 -0.852661 0 0 1
1.17969 0.984375 -0.830115 0 0 1
1.19531 0.984375 -0.733143 0 0 1
0.867188 0.992188 -0.486884 0 0 1
0.929688 0.992188 -0.662794 0 0 1
0.9375 0.992188 -0.724054 0 0 1
0.953125 0.992188 -0.785119 0 0 1
0.960938 0.992188 -0.809539 0 0 1
0.976562 0.992188 -1.02021 0 0 1
0.984375 0.992188 -0.838905 0 0 1
1 0.992188 -0.981412 0 0 1
1.00781 0.992188 -0.854489 0 0 1
1.03125 0.992188 -0.867969 0 0 1
1.05469 0.992188 -0.873446 0 0 1
1.0625 0.992188 -0.981527 0 0 1
1.08594 0.992188 -0.998799 0 0 1
1.09375 0.992188 -1.05038 0 0 1
1.10156 0.992188 -1.02248 0 0 1
1.125 0.992188 -0.861535 0 0 1
1.14062 0.992188 -0.858225 0 0 1
1.17969 0.992188 -0.794714 0 0 1
0.859375 1 -0.47809 0 0 1
0.890625 1 -0.506482 0 0 1
0.921875 1 -0.701724 0 0 1
0.929688 1 -0.71394 0 0 1
0.9375 1 -0.72623 0 0 1
0.945312 1 -0.760706 0 0 1
0.953125 1 -0.802037 0 0 1
0.976562 1 -0.983489 0 0 1
0.992188 1 -1.03822 0 0 1
1.00781 1 -0.965804 0 0 1
1.01562 1 -1.05271 0 0 1
1.03125 1 -0.967571 0 0 1
1.04688 1 -0.975887 0 0 1
1.05469 1 -1.0617 0 0 1
1.07031 1 -0.990482 0 0 1
1.08594 1 -1.02557 0 0 1
1.09375 1 -0.868041 0 0 1
1.10156 1 -1.03621 0 0 1
1.14844 1 -0.848628 0 0 1
1.16406 1 -0.837692 0 0 1
1.17188 1 -0.761387 0 0 1
1.17969 1 -0.741159 0 0 1
1.1875 1 -0.704443 0 0 1
0.851562 1.00781 -0.489843 0 0 1
0.921875 1.00781 -0.676524 0 0 1
0.929688 1.00781 -0.64828 0 0 1
0.9375 1.00781 -0.775907 0 0 1
0.945312 1.00781 -0.787201 0 0 1
0.960938 1.00781 -1.00585 0 0 1
0.96875 1.00781 -1.0177 0 0 1
1 1.00781 -0.855648 0 0 1
1.00781 1.00781 -1.04876 0 0 1
1.02344 1.00781 -0.869566 0 0 1
1.03125 1.00781 -1.05755 0 0 1
1.04688 1.00781 -0.974312 0 0 1
1.0625 1.00781 -0.873522 0 0 1
1.07031 1.00781 -0.872931 0 0 1
1.10156 1.00781 -0.86382 0 0 1
1.11719 1.00781 -0.858276 0 0 1
1.13281 1.00781 -0.85455 0 0 1
1.15625 1.00781 -0.833831 0 0 1
1.17188 1.00781 -0.817772 0 0 1
0.859375 1.01562 -0.447057 0 0 1
0.890625 1.01562 -0.511118 0 0 1
0.90625 1.01562 -0.506918 0 0 1
0.914062 1.01562 -0.716307 0 0 1
0.929688 1.01562 -0.778931 0 0 1
0.945312 1.01562 -0.803351 0 0 1
0.953125 1.01562 -0.819759 0 0 1
0.960938 1.01562 -0.59511 0 0 1
0.96875 1.01562 -0.978946 0 0 1
0.976562 1.01562 -1.02852 0 0 1
0.984375 1.01562 -0.848002 0 0 1
0.992188 1.01562 -1.04459 0 0 1
1.03125 1.01562 -0.96668 0 0 1
1.04688 1.01562 -1.05589 0 0 1
1.07031 1.01562 -1.04777 0 0 1
1.07812 1.01562 -1.03248 0 0 1
1.08594 1.01562 -0.866977 0 0 1
1.14844 1.01562 -0.838603 0 0 1
1.17188 1.01562 -0.779901 0 0 1
0.84375 1.02344 -0.492684 0 0 1
0.851562 1.02344 -0.501137 0 0 1
0.859375 1.02344 -0.511887 0 0 1
0.890625 1.02344 -0.708854 0 0 1
0.898438 1.02344 -0.693468 0 0 1
0.90625 1.02344 -0.729368 0 0 1
0.921875 1.02344 -0.761529 0 0 1
0.9375 1.02344 -0.815647 0 0 1
0.945312 1.02344 -0.604793 0 0 1
0.953125 1.02344 -1.01463 0 0 1
0.96875 1.02344 -1.02147 0 0 1
0.976562 1.02344 -1.03641 0 0 1
0.992188 1.02344 -0.860653 0 0 1
1.00781 1.02344 -0.959498 0 0 1
1.01562 1.02344 -1.05352 0 0 1
1.02344 1.02344 -0.966335 0 0 1
1.04688 1.02344 -0.980794 0 0 1
1.05469 1.02344 -1.00213 0 0 1
1.0625 1.02344 -1.03089 0 0 1
1.10938 1.02344 -0.858623 0 0 1
1.125 1.02344 -0.850132 0 0 1
1.14844 1.02344 -0.826962 0 0 1
1.15625 1.02344 -0.794731 0 0 1
0.875 1.03125 -0.518076 0 0 1
0.890625 1.03125 -0.673557 0 0 1
0.898438 1.03125 -0.652742 0 0 1
0.90625 1.03125 -0.800177 0 0 1
0.921875 1.03125 -0.80521 0 0 1
0.929688 1.03125 -0.614602 0 0 1
0.9375 1.03125 -0.829906 0 0 1
0.945312 1.03125 -1.00214 0 0 1
0.96875 1.03125 -0.967403 0 0 1
0.992188 1.03125 -0.955853 0 0 1
1.00781 1.03125 -1.04957 0 0 1
1.03125 1.03125 -1.05211 0 0 1
1.04688 1.03125 -0.993287 0 0 1
1.05469 1.03125 -1.04323 0 0 1
1.13281 1.03125 -0.837809 0 0 1
1.14062 1.03125 -0.816028 0 0 1
1.14844 1.03125 -0.744133 0 0 1
0.835938 1.03906 -0.510585 0 0 1
0.867188 1.03906 -0.702139 0 0 1
0.875 1.03906 -0.710516 0 0 1
0.882812 1.03906 -0.735668 0 0 1
0.90625 1.03906 -0.820772 0 0 1
0.921875 1.03906 -0.821853 0 0 1
0.929688 1.03906 -0.838303 0 0 1
0.953125 1.03906 -0.847929 0 0 1
0.960938 1.03906 -0.962008 0 0 1
0.976562 1.03906 -1.0349 0 0 1
0.992188 1.03906 -1.04422 0 0 1
1.00781 1.03906 -0.867033 0 0 1
1.03125 1.03906 -1.00316 0 0 1
1.03906 1.03906 -1.04283 0 0 1
1.04688 1.03906 -0.870005 0 0 1
1.0625 1.03906 -0.867379 0 0 1
1.08594 1.03906 -0.862783 0 0 1
1.10156 1.03906 -0.854861 0 0 1
1.11719 1.03906 -0.847456 0 0 1
1.14062 1.03906 -0.800997 0 0 1
1.14844 1.03906 -0.767714 0 0 1
0.828125 1.04688 -0.485895 0 0 1
0.851562 1.04688 -0.693494 0 0 1
0.859375 1.04688 -0.526248 0 0 1
0.867188 1.04688 -0.720989 0 0 1
0.875 1.04688 -0.800227 0 0 1
0.882812 1.04688 -0.808159 0 0 1
0.890625 1.04688 -0.824922 0 0 1
0.90625 1.04688 -0.836167 0 0 1
0.914062 1.04688 -0.622395 0 0 1
0.921875 1.04688 -0.849429 0 0 1
0.9375 1.04688 -1.00685 0 0 1
0.945312 1.04688 -0.965115 0 0 1
0.960938 1.04688 -0.953722 0 0 1
1 1.04688 -0.866841 0 0 1
1.00781 1.04688 -0.96089 0 0 1
1.01562 1.04688 -1.04685 0 0 1
1.02344 1.04688 -1.00888 0 0 1
1.03125 1.04688 -1.03877 0 0 1
1.125 1.04688 -0.834004 0 0 1
1.13281 1.04688 -0.821684 0 0 1
1.14062 1.04688 -0.789655 0 0 1
1.14844 1.04688 -0.731009 0 0 1
0.828125 1.05469 -0.503869 0 0 1
0.835938 1.05469 -0.524072 0 0 1
0.84375 1.05469 -0.684224 0 0 1
0.851562 1.05469 -0.718072 0 0 1
0.859375 1.05469 -0.731722 0 0 1
0.867188 1.05469 -0.812905 0 0 1
0.875 1.05469 -0.786062 0 0 1
0.890625 1.05469 -0.844662 0 0 1
0.90625 1.05469 -0.620474 0 0 1
0.914062 1.05469 -0.860611 0 0 1
0.921875 1.05469 -0.974062 0 0 1
0.9375 1.05469 -0.963764 0 0 1
0.953125 1.05469 -0.864693 0 0 1
0.96875 1.05469 -0.945875 0 0 1
0.976562 1.05469 -1.034 0 0 1
0.984375 1.05469 -0.866822 0 0 1
0.992188 1.05469 -1.04069 0 0 1
1.01562 1.05469 -1.03233 0 0 1
1.03906 1.05469 -0.867796 0 0 1
1.0625 1.05469 -0.865574 0 0 1
1.07812 1.05469 -0.85855 0 0 1
1.13281 1.05469 -0.800217 0 0 1
1.14062 1.05469 -0.768186 0 0 1
0.820312 1.0625 -0.51142 0 0 1
0.828125 1.0625 -0.698698 0 0 1
0.835938 1.0625 -0.711687 0 0 1
0.84375 1.0625 -0.795214 0 0 1
0.851562 1.0625 -0.810695 0 0 1
0.859375 1.0625 -0.821838 0 0 1
0.867188 1.0625 -0.832257 0 0 1
0.875 1.0625 -0.844887 0 0 1
0.882812 1.0625 -0.856593 0 0 1
0.890625 1.0625 -0.866339 0 0 1
0.921875 1.0625 -1.00048 0 0 1
0.929688 1.0625 -0.867996 0 0 1
0.9375 1.0625 -0.869218 0 0 1
0.945312 1.0625 -1.01947 0 0 1
0.953125 1.0625 -0.94204 0 0 1
1 1.0625 -1.03026 0 0 1
1.00781 1.0625 -0.972751 0 0 1
1.01562 1.0625 -1.01601 0 0 1
1.09375 1.0625 -0.847966 0 0 1
1.10938 1.0625 -0.836888 0 0 1
1.125 1.0625 -0.803102 0 0 1
1.14062 1.0625 -0.718258 0 0 1
0.820312 1.07031 -0.49527 0 0 1
0.828125 1.07031 -0.719632 0 0 1
0.835938 1.07031 -0.648553 0 0 1
0.84375 1.07031 -0.834131 0 0 1
0.851562 1.07031 -0.849578 0 0 1
0.859375 1.07031 -0.616665 0 0 1
0.867188 1.07031 -0.536416 0 0 1
0.898438 1.07031 -0.874461 0 0 1
0.914062 1.07031 -0.969134 0 0 1
0.921875 1.07031 -0.961582 0 0 1
0.929688 1.07031 -0.946332 0 0 1
0.9375 1.07031 -1.01272 0 0 1
0.945312 1.07031 -0.87486 0 0 1
0.960938 1.07031 -1.02644 0 0 1
0.96875 1.07031 -0.941855 0 0 1
0.992188 1.07031 -0.870619 0 0 1
1 1.07031 -1.0158 0 0 1
1.00781 1.07031 -0.980682 0 0 1
1.03906 1.07031 -0.864074 0 0 1
1.0625 1.07031 -0.86052 0 0 1
1.07812 1.07031 -0.850599 0 0 1
1.11719 1.07031 -0.811886 0 0 1
1.125 1.07031 -0.7861 0 0 1
1.13281 1.07031 -0.743865 0 0 1
0.804688 1.07812 -0.703906 0 0 1
0.8125 1.07812 -0.71827 0 0 1
0.820312 1.07812 -0.740933 0 0 1
0.828125 1.07812 -0.825958 0 0 1
0.835938 1.07812 -0.81051 0 0 1
0.859375 1.07812 -0.862311 0 0 1
0.875 1.07812 -0.872574 0 0 1
0.914062 1.07812 -0.982073 0 0 1
0.921875 1.07812 -0.950309 0 0 1
0.929688 1.07812 -0.937691 0 0 1
0.945312 1.07812 -0.935158 0 0 1
0.976562 1.07812 -1.02556 0 0 1
0.984375 1.07812 -1.02329 0 0 1
1 1.07812 -1.00546 0 0 1
1.00781 1.07812 -0.994084 0 0 1
1.01562 1.07812 -0.865242 0 0 1
1.10156 1.07812 -0.823863 0 0 1
1.125 1.07812 -0.713077 0 0 1
0.796875 1.08594 -0.696162 0 0 1
0.804688 1.08594 -0.728404 0 0 1
0.8125 1.08594 -0.809172 0 0 1
0.820312 1.08594 -0.793162 0 0 1
0.84375 1.08594 -0.862501 0 0 1
0.859375 1.08594 -0.879529 0 0 1
0.882812 1.08594 -0.883813 0 0 1
0.90625 1.08594 -0.957254 0 0 1
0.921875 1.08594 -0.941052 0 0 1
0.929688 1.08594 -1.01121 0 0 1
0.953125 1.08594 -1.01927 0 0 1
0.960938 1.08594 -0.934523 0 0 1
1 1.08594 -1.00336 0 0 1
1.00781 1.08594 -0.9792 0 0 1
1.03906 1.08594 -0.856512 0 0 1
1.05469 1.08594 -0.849855 0 0 1
1.07812 1.08594 -0.84445 0 0 1
1.10156 1.08594 -0.810152 0 0 1
1.10938 1.08594 -0.797786 0 0 1
1.11719 1.08594 -0.776629 0 0 1
1.125 1.08594 -0.747691 0 0 1
0.789062 1.09375 -0.687119 0 0 1
0.804688 1.09375 -0.8104 0 0 1
0.8125 1.09375 -0.827559 0 0 1
0.820312 1.09375 -0.851208 0 0 1
0.828125 1.09375 -0.875869 0 0 1
0.84375 1.09375 -0.879114 0 0 1
0.890625 1.09375 -0.958025 0 0 1
0.898438 1.09375 -0.88625 0 0 1
0.90625 1.09375 -0.995154 0 0 1
0.921875 1.09375 -1.00492 0 0 1
0.929688 1.09375 -0.927778 0 0 1
0.945312 1.09375 -0.930185 0 0 1
0.953125 1.09375 -0.878825 0 0 1
0.984375 1.09375 -1.01307 0 0 1
1 1.09375 -0.989989 0 0 1
1.02344 1.09375 -0.860159 0 0 1
1.0625 1.09375 -0.83993 0 0 1
1.07031 1.09375 -0.831427 0 0 1
1.08594 1.09375 -0.814436 0 0 1
1.09375 1.09375 -0.800974 0 0 1
1.10156 1.09375 -0.78114 0 0 1
1.11719 1.09375 -0.739743 0 0 1
0.773438 1.10156 -0.673162 0 0 1
0.78125 1.10156 -0.714599 0 0 1
0.789062 1.10156 -0.729828 0 0 1
0.796875 1.10156 -0.817142 0 0 1
0.804688 1.10156 -0.857229 0 0 1
0.820312 1.10156 -0.882559 0 0 1
0.835938 1.10156 -0.885477 0 0 1
0.851562 1.10156 -0.889368 0 0 1
0.882812 1.10156 -0.895181 0 0 1
0.898438 1.10156 -0.993439 0 0 1
0.945312 1.10156 -1.01556 0 0 1
0.960938 1.10156 -0.933699 0 0 1
0.976562 1.10156 -0.872422 0 0 1
0.992188 1.10156 -0.96513 0 0 1
1.03125 1.10156 -0.85017 0 0 1
1.07031 1.10156 -0.81036 0 0 1
1.09375 1.10156 -0.783449 0 0 1
1.10938 1.10156 -0.759467 0 0 1
1.11719 1.10156 -0.724071 0 0 1
0.757812 1.10938 -0.661786 0 0 1
0.773438 1.10938 -0.707052 0 0 1
0.78125 1.10938 -0.734478 0 0 1
0.789062 1.10938 -0.847618 0 0 1
0.796875 1.10938 -0.75865 0 0 1
0.804688 1.10938 -0.868137 0 0 1
0.84375 1.10938 -0.895265 0 0 1
0.851562 1.10938 -0.897787 0 0 1
0.875 1.10938 -0.897553 0 0 1
0.882812 1.10938 -0.966652 0 0 1
0.890625 1.10938 -0.935612 0 0 1
0.898438 1.10938 -0.92756 0 0 1
0.914062 1.10938 -0.920824 0 0 1
0.9375 1.10938 -0.924049 0 0 1
0.945312 1.10938 -1.0122 0 0 1
0.960938 1.10938 -1.01074 0 0 1
0.96875 1.10938 -0.936596 0 0 1
0.984375 1.10938 -0.945206 0 0 1
0.992188 1.10938 -0.864782 0 0 1
1.01562 1.10938 -0.84784 0 0 1
1.03125 1.10938 -0.840815 0 0 1
1.04688 1.10938 -0.832591 0 0 1
1.05469 1.10938 -0.813676 0 0 1
1.07812 1.10938 -0.793568 0 0 1
1.09375 1.10938 -0.763333 0 0 1
1.10156 1.10938 -0.73845 0 0 1
0.757812 1.11719 -0.683072 0 0 1
0.765625 1.11719 -0.692823 0 0 1
0.773438 1.11719 -0.849465 0 0 1
0.78125 1.11719 -0.859877 0 0 1
0.796875 1.11719 -0.876867 0 0 1
0.8125 1.11719 -0.884397 0 0 1
0.828125 1.11719 -0.896978 0 0 1
0.859375 1.11719 -0.904387 0 0 1
0.90625 1.11719 -1.00346 0 0 1
0.929688 1.11719 -1.01076 0 0 1
0.960938 1.11719 -0.930785 0 0 1
0.984375 1.11719 -0.985834 0 0 1
1 1.11719 -0.856763 0 0 1
1.03906 1.11719 -0.826088 0 0 1
1.0625 1.11719 -0.791361 0 0 1
1.07812 1.11719 -0.775996 0 0 1
1.09375 1.11719 -0.748403 0 0 1
0.742188 1.125 -0.672821 0 0 1
0.757812 1.125 -0.730085 0 0 1
0.765625 1.125 -0.845513 0 0 1
0.773438 1.125 -0.86071 0 0 1
0.8125 1.125 -0.89387 0 0 1
0.835938 1.125 -0.905781 0 0 1
0.84375 1.125 -0.91011 0 0 1
0.867188 1.125 -0.959224 0 0 1
0.882812 1.125 -0.986664 0 0 1
0.890625 1.125 -0.994399 0 0 1
0.90625 1.125 -0.895982 0 0 1
0.921875 1.125 -1.00755 0 0 1
0.929688 1.125 -0.918985 0 0 1
0.945312 1.125 -0.923458 0 0 1
0.960938 1.125 -0.874449 0 0 1
0.96875 1.125 -1.00284 0 0 1
0.984375 1.125 -0.973046 0 0 1
1.00781 1.125 -0.842955 0 0 1
1.02344 1.125 -0.829913 0 0 1
1.03906 1.125 -0.809273 0 0 1
1.05469 1.125 -0.803471 0 0 1
1.08594 1.125 -0.757301 0 0 1
0.734375 1.13281 -0.654588 0 0 1
0.742188 1.13281 -0.694581 0 0 1
0.757812 1.13281 -0.849798 0 0 1
0.765625 1.13281 -0.812074 0 0 1
0.78125 1.13281 -0.878754 0 0 1
0.789062 1.13281 -0.887887 0 0 1
0.804688 1.13281 -0.900614 0 0 1
0.859375 1.13281 -0.959839 0 0 1
0.882812 1.13281 -0.917591 0 0 1
0.898438 1.13281 -0.915476 0 0 1
0.90625 1.13281 -1.00338 0 0 1
0.929688 1.13281 -1.0051 0 0 1
0.9375 1.13281 -0.883237 0 0 1
0.945312 1.13281 -0.926438 0 0 1
0.953125 1.13281 -1.0018 0 0 1
0.960938 1.13281 -0.937301 0 0 1
1.03125 1.13281 -0.817771 0 0 1
1.05469 1.13281 -0.792599 0 0 1
1.07812 1.13281 -0.749205 0 0 1
0.742188 1.14062 -0.623568 0 0 1
0.757812 1.14062 -0.825245 0 0 1
0.773438 1.14062 -0.883361 0 0 1
