0.044148 -0.093679 0.0630117
0.0425495 -0.0950889 0.063844
0.0417685 -0.0964468 0.0646036
0.0416125 -0.0973896 0.0653525
0.0418168 -0.0974821 0.0662759
0.0420622 -0.0974861 0.0673327
0.0422932 -0.0974312 0.0685376
0.0420163 -0.0981085 0.0698264
0.0415536 -0.0983828 0.071222
0.041146 -0.098737 0.0724125
0.0410627 -0.0986819 0.0733894
0.0409965 -0.0982531 0.0743705
0.0406875 -0.0985462 0.0752392
0.0406078 -0.0987527 0.075989
0.040297 -0.0980785 0.0769895
0.0404779 -0.0971749 0.0780047
0.0408429 -0.0960671 0.0788845
0.0421834 -0.0939738 0.079395
0.0456384 -0.0900711 0.0801255
0.0477382 -0.0873671 0.0796134
0.0487161 -0.0842422 0.0780217
0.0446985 -0.0865427 0.0755122
0.0411535 -0.0888675 0.0761689
0.0411322 -0.0883469 0.0781015
0.0437032 -0.0872496 0.0800616
0.0429323 -0.0874228 0.0791093
0.0406794 -0.0872881 0.0794803
0.038464 -0.0895079 0.0786438
0.0375075 -0.0916465 0.078179
0.0371758 -0.0923568 0.0807466
0.03722 -0.0926266 0.0813666
0.0381358 -0.0920214 0.0817844
0.0388089 -0.091224 0.0812975
0.0397801 -0.0904119 0.0796584
0.0411741 -0.0907092 0.0780787
0.0416975 -0.0916541 0.0778733
0.0414866 -0.0926387 0.078803
0.0405364 -0.0942005 0.0800568
0.0399612 -0.0955374 0.0812839
0.0386772 -0.0967133 0.0823823
0.0375025 -0.0974368 0.0835642
0.0367209 -0.0979129 0.0848966
0.0349211 -0.0982744 0.0866122
0.0335233 -0.0987498 0.0892024
0.0316322 -0.0985037 0.0923559
0.029635 -0.0966071 0.0955062
0.0279619 -0.0940498 0.0981806
0.0259719 -0.0916059 0.100021
0.0237592 -0.0900492 0.101192
0.0219162 -0.0882691 0.101815
0.0201039 -0.0859591 0.101507
0.0195056 -0.0834782 0.100834
0.0199201 -0.081846 0.0996627
0.0196676 -0.0821697 0.0988176
0.0201138 -0.082789 0.0979512
0.0198725 -0.0828296 0.0970995
0.0188128 -0.0830877 0.0962092
0.0184127 -0.0828255 0.095899
0.0175675 -0.0829377 0.0955805
0.0180142 -0.0833804 0.0954208
0.0185949 -0.0838322 0.0954764
0.0187842 -0.0838276 0.0958289
0.0194272 -0.0841639 0.0959972
0.0199738 -0.0847797 0.0961364
0.0214074 -0.0850772 0.0956318
0.0223063 -0.0851874 0.095787
0.0219918 -0.0857599 0.0960998
0.0232318 -0.0858212 0.0960032
0.0258509 -0.0857449 0.0954704
0.0274821 -0.0864304 0.0958082
0.0296436 -0.0864837 0.0960892
0.02891 -0.0869805 0.0959573
0.0341323 -0.0856865 0.094723
0.0350345 -0.0849058 0.0933298
0.0362079 -0.0829351 0.090101
0.0363836 -0.0821009 0.0857361
0.0356479 -0.081815 0.0832109
0.0350513 -0.0827267 0.0799553
0.0344292 -0.0834877 0.0775101
0.0329686 -0.0838623 0.0755864
0.0302546 -0.0833009 0.0738848
0.026987 -0.0825942 0.0715763
0.0241483 -0.0812403 0.0687103
0.022084 -0.080076 0.0653148
0.0205277 -0.0794821 0.0613555
0.0195872 -0.0805732 0.0589996
0.0176581 -0.0815518 0.0546955
0.0155703 -0.0825298 0.0501353
0.0146541 -0.0835473 0.0455262
0.0138448 -0.0850565 0.0434184
0.0134767 -0.086491 0.0429577
0.0136564 -0.0869091 0.0430791
0.0139691 -0.0868829 0.0436372
0.0145304 -0.0860218 0.0447397
0.0140848 -0.0808955 0.0453756
0.0140402 -0.0775292 0.0456342
0.0145462 -0.0758929 0.0451119
-0.00384396 -0.0581559 0.0551683
0.0285846 -0.0716936 0.0969837
-0.00401489 -0.0602888 0.0388537
0.0302355 -0.0772002 0.0975182
0.0302209 -0.0813383 0.0947713
0.0305938 -0.081855 0.092711
0.0300607 -0.0859608 0.0871155
0.03072 -0.0883066 0.0849906
0.0297622 -0.0978994 0.074827
0.0297486 -0.103975 0.0700041
0.0299288 -0.112176 0.0637433
0.0310025 -0.116605 0.0586232
0.0334031 -0.115547 0.054417
0.0361312 -0.112395 0.0502707
0.0360194 -0.111508 0.044674
0.0370328 -0.109424 0.0368662
0.0374112 -0.107261 0.0278707
0.0369966 -0.105423 0.0202057
0.0371381 -0.104518 0.0157279
0.0362268 -0.10537 0.0150357
0.0352013 -0.105355 0.0157172
0.0343983 -0.104425 0.0176896
0.0333397 -0.102658 0.0176838
0.0322191 -0.0982461 0.0143976
0.031842 -0.0922736 0.0100568
0.0318499 -0.0870096 0.00375006
0.0315055 -0.0817031 -0.0022574
0.0308201 -0.0780404 -0.00656203
0.0305889 -0.0771712 -0.00859393
0.030924 -0.077615 -0.00934214
0.0313536 -0.0795209 -0.0095875
0.0312572 -0.0818661 -0.0108552
0.030864 -0.0841181 -0.012669
0.0310433 -0.0860468 -0.0135987
0.0320701 -0.0881389 -0.0128784
0.0327882 -0.0911245 -0.0125751
0.0331937 -0.0935319 -0.013074
0.0339627 -0.0960545 -0.0131597
0.0357474 -0.0971547 -0.0108416
0.0383096 -0.098145 -0.00415693
0.0390092 -0.0998991 0.00723509
0.0363248 -0.101176 0.0191804
0.0331349 -0.101557 0.0254843
0.0316609 -0.101284 0.0275506
0.0316623 -0.10041 0.0280278
0.0322309 -0.0993205 0.0283045
0.0332939 -0.0976633 0.0280044
0.0359279 -0.0932581 0.0243349
0.0403212 -0.0849986 0.0142838
0.0427396 -0.0749884 -0.000898021
0.0401455 -0.0652634 -0.015407
0.035256 -0.0579499 -0.0228071
0.0338322 -0.0544007 -0.0247063
0.0310252 -0.0517628 -0.0243417
0.0318923 -0.0516373 -0.0217001
0.034319 -0.0551686 -0.0161393
0.0372454 -0.0620924 -0.00686121
0.038273 -0.069472 0.00468911
0.0371093 -0.0750501 0.0138962
0.0348211 -0.0783491 0.0195617
0.0336464 -0.0795072 0.0218363
0.0341009 -0.0798198 0.0237104
0.032581 -0.0790229 0.0228875
0.0338012 -0.0807864 0.0231198
0.0357078 -0.084288 0.0242779
0.0380819 -0.0872738 0.0264875
0.0410045 -0.0884582 0.0291393
0.0433166 -0.0883334 0.0314699
0.0459988 -0.0880858 0.0371374
0.0476371 -0.0863111 0.0416993
0.0476879 -0.0839922 0.045677
0.0459757 -0.0839421 0.0476557
0.0441095 -0.085367 0.0488775
0.0431473 -0.0867967 0.0495888
0.0427457 -0.0877848 0.0501828
0.0430121 -0.0880921 0.0508578
0.0444821 -0.0864545 0.0505831
0.0470705 -0.0837267 0.0490385
0.0506446 -0.0817852 0.0463104
0.0558133 -0.0802079 0.0425433
0.0593844 -0.0791314 0.0402565
0.0576071 -0.0805812 0.0420645
0.051649 -0.0832906 0.0468769
0.0467404 -0.0855261 0.0499704
0.044977 -0.086369 0.0512909
0.0459127 -0.0861761 0.0515905
0.0495575 -0.0837784 0.0509429
0.0555051 -0.0802484 0.0481168
0.0610771 -0.0775352 0.0445885
0.0632581 -0.0766389 0.0437328
0.0606296 -0.0784214 0.0470398
0.0551202 -0.0822175 0.0516121
0.0495733 -0.0862148 0.0551436
0.0455832 -0.0897143 0.0570708
0.0422919 -0.092324 0.0584924
0.039768 -0.0940449 0.0597199
0.0388006 -0.0947524 0.0606255
0.0383531 -0.095973 0.0613003
0.038497 -0.096761 0.0619814
0.0392848 -0.0968054 0.0627891
0.0405402 -0.0963658 0.0636687
0.0410727 -0.0958949 0.0648897
0.0405337 -0.0966295 0.0662304
0.0393885 -0.0977005 0.0676332
0.0386867 -0.0980733 0.0689114
0.0386165 -0.0981693 0.0698848
0.0385896 -0.0978892 0.0708893
0.038542 -0.0984064 0.0716439
0.0384817 -0.0987393 0.0726052
0.0384272 -0.0980485 0.0737062
0.0385897 -0.0973446 0.0746295
0.0390712 -0.0961847 0.0754005
0.0414699 -0.0939619 0.0754056
0.0452079 -0.0904725 0.0756768
0.050002 -0.0846199 0.0730558
0.0495256 -0.0838066 0.0729824
0.0424625 -0.0874791 0.0719325
0.0388596 -0.0888941 0.074479
0.0385307 -0.0885153 0.0759742
0.0408504 -0.0868559 0.0760587
0.0414794 -0.0866989 0.0740679
0.0396831 -0.0859329 0.0739731
0.037612 -0.0879688 0.0735984
0.0370134 -0.0910801 0.074107
0.0368667 -0.09242 0.0772008
0.0368224 -0.0921611 0.0782549
0.0372344 -0.0911647 0.0788876
0.0376816 -0.0902437 0.0791463
0.0385735 -0.0897961 0.0770088
0.039608 -0.0908338 0.0735062
0.039909 -0.0918839 0.0730775
0.039687 -0.0931689 0.0740984
0.0394945 -0.0943217 0.0756883
0.039022 -0.095531 0.0773547
0.038287 -0.0966312 0.0788659
0.0375675 -0.0973126 0.0801552
0.0362105 -0.0983609 0.0818148
0.0348636 -0.0990152 0.0837848
0.0330809 -0.0989265 0.086391
0.0319985 -0.0986778 0.0896575
0.0312887 -0.0968833 0.0927975
0.0309449 -0.0945917 0.0953198
0.0301236 -0.0932027 0.0973421
0.0283648 -0.0916434 0.0988061
0.0265293 -0.0893989 0.0996723
0.0253001 -0.0864143 0.0998426
0.0242362 -0.0832022 0.0992972
0.023636 -0.0815137 0.0987151
0.0231872 -0.0815558 0.097898
0.0224131 -0.0830944 0.0970582
0.0223963 -0.0837124 0.0960704
0.0220607 -0.0836618 0.0953895
0.0214992 -0.0835449 0.0950499
0.0208633 -0.0835708 0.0944947
0.0202174 -0.0838827 0.0944359
0.0211392 -0.0838096 0.0942658
0.0227418 -0.0836037 0.0936016
0.0231157 -0.0839164 0.0933965
0.0231797 -0.084377 0.0936285
0.0240001 -0.0843641 0.0937273
0.0247812 -0.0847662 0.093735
0.0260562 -0.0845203 0.093623
0.0283399 -0.0844411 0.093426
0.0314579 -0.0844907 0.0936307
0.033828 -0.0843345 0.0938538
0.0368549 -0.0843734 0.0934458
0.0384383 -0.0846944 0.092384
0.0386022 -0.084642 0.0916083
0.0387866 -0.0833807 0.087808
0.0384549 -0.0828186 0.0857138
0.0376345 -0.0826965 0.0825928
0.0363266 -0.0832765 0.0798827
0.0351148 -0.0845049 0.0777009
0.0344437 -0.085306 0.0761339
0.0339396 -0.085736 0.0753023
0.0322261 -0.0860112 0.0741757
0.0289459 -0.0852454 0.0724866
0.0260355 -0.084138 0.0703799
0.0236578 -0.0825419 0.0675486
0.0218401 -0.0817037 0.0644977
0.0198873 -0.082115 0.0614198
0.0186825 -0.083022 0.0596203
0.0168166 -0.0836883 0.05613
0.014736 -0.0843715 0.0513246
0.0128298 -0.0842257 0.0481081
0.0124645 -0.0829703 0.0458135
0.0130035 -0.0819935 0.0448162
0.0135392 -0.0818971 0.0447748
0.0138548 -0.0810488 0.0449167
0.0139503 -0.0786965 0.0450267
0.0141689 -0.0765692 0.0442965
0.0144854 -0.0736267 0.0424549
-0.00389472 -0.0563682 0.0505241
-0.00320034 -0.0666222 0.0631467
0.0226662 -0.07626 0.0898274
0.0244835 -0.0790009 0.0926236
0.0234501 -0.0808154 0.0879831
0.0219689 -0.0865422 0.0815068
0.0212593 -0.0910092 0.0768125
0.0203886 -0.0964469 0.0703262
0.019605 -0.102798 0.0636993
0.0194978 -0.10897 0.0581462
0.0217525 -0.112549 0.0552324
0.0244428 -0.115984 0.0520428
0.0273535 -0.115765 0.0495299
0.029075 -0.113639 0.0468016
0.0298114 -0.112095 0.0415412
0.0308746 -0.109619 0.0338752
0.0315252 -0.106339 0.0221976
0.0304759 -0.104404 0.0144637
0.0293032 -0.104384 0.011543
0.0283384 -0.105178 0.0111865
0.0273355 -0.105721 0.01226
0.0265197 -0.10479 0.0140322
0.0253471 -0.102679 0.0135952
0.0243634 -0.097493 0.0107461
0.0239968 -0.0909743 0.0055702
0.0241174 -0.0846661 0.000745047
0.0239653 -0.0793534 -0.00327872
0.0236032 -0.0765946 -0.00620256
0.0236463 -0.0755228 -0.00773133
0.0254456 -0.0768733 -0.0083792
0.0259068 -0.0791524 -0.00824656
0.025915 -0.0818481 -0.00910616
0.0258761 -0.0844137 -0.0106496
0.0266488 -0.0868002 -0.010439
0.02751 -0.0893737 -0.00991376
0.0279287 -0.0918871 -0.0101035
0.0282983 -0.0945257 -0.0105443
0.0289979 -0.0961467 -0.0104026
0.0306162 -0.0971824 -0.00774968
0.0325536 -0.0983179 -0.00156595
0.0328575 -0.0997286 0.00816809
0.030951 -0.100806 0.0180328
0.028547 -0.101587 0.023832
0.0273521 -0.101501 0.0258349
0.0274975 -0.0998665 0.026069
0.0285359 -0.0980668 0.0253459
0.0298162 -0.0958649 0.0244581
0.0321229 -0.091428 0.0201639
0.0355177 -0.0839063 0.00983519
0.0368056 -0.0749068 -0.00408752
0.0341913 -0.0659432 -0.015028
0.0300687 -0.0583146 -0.0210406
0.0270192 -0.0539038 -0.0234286
0.0258737 -0.0517855 -0.0231057
0.0267353 -0.0516528 -0.0204372
0.028958 -0.0552075 -0.0144359
0.0307728 -0.0621002 -0.00511132
0.0320129 -0.0691764 0.00455222
0.0312506 -0.073664 0.0121042
0.0294465 -0.0756986 0.0168707
0.0279829 -0.0766493 0.0191084
0.0253021 -0.0763526 0.0192991
0.0254656 -0.0763219 0.019482
0.0270695 -0.0782075 0.0200765
0.0290243 -0.0822427 0.0215656
0.0313378 -0.0853407 0.0244491
0.0340231 -0.0867021 0.0268812
0.036141 -0.0865911 0.0285118
0.0392188 -0.0850543 0.0319081
0.0413042 -0.083009 0.0353248
0.0413849 -0.08171 0.0390301
0.0399789 -0.0827639 0.0414508
0.038614 -0.0849602 0.0432679
0.0382513 -0.0863991 0.0444742
0.0383612 -0.0867058 0.0459642
0.0386457 -0.08711 0.0468737
0.0397368 -0.0861394 0.0465943
0.0423836 -0.084351 0.0458823
0.0450425 -0.0818439 0.0422977
0.0497305 -0.0797626 0.0390404
0.0521854 -0.0793879 0.0373766
0.0482832 -0.0820754 0.0409749
0.0431387 -0.0852968 0.0448493
0.0407369 -0.0864846 0.0469132
0.0411897 -0.0862021 0.04773
0.0441375 -0.0850596 0.0470673
0.0492779 -0.0814708 0.0450747
0.0549894 -0.0776651 0.0413355
0.0595986 -0.0753574 0.037309
0.06035 -0.0753557 0.0376307
0.056517 -0.0782509 0.0424578
0.0500598 -0.0826779 0.0483349
0.044499 -0.0865561 0.052398
0.0407833 -0.0898221 0.054466
0.0377698 -0.0921345 0.0560016
0.0364023 -0.0937468 0.0568646
0.035324 -0.0944328 0.0579472
0.0348532 -0.0950015 0.0588305
0.0353616 -0.0954377 0.0595136
0.0373562 -0.0953905 0.0597998
0.0391631 -0.0950747 0.0603507
0.0394638 -0.0946443 0.0616436
0.0384473 -0.0957665 0.063105
0.0370662 -0.097089 0.0646014
0.0368999 -0.0972496 0.065712
0.0371479 -0.0966648 0.0666954
0.0368641 -0.0970265 0.067794
0.03631 -0.0980721 0.0688137
0.0360202 -0.0985861 0.0699282
0.0359628 -0.0977628 0.0710426
0.0364159 -0.0972142 0.0717931
0.0375984 -0.0960629 0.0720885
0.040157 -0.0937176 0.0726113
0.0456517 -0.0889752 0.0705606
0.0498403 -0.0843501 0.0676275
0.0475725 -0.0851858 0.0684959
0.0391683 -0.0900106 0.0687541
0.036626 -0.0895978 0.0719687
0.0370146 -0.0875344 0.0736512
0.0394048 -0.0853704 0.0730619
0.0399991 -0.0854886 0.0706303
0.0391869 -0.0849588 0.0709614
0.0374487 -0.086881 0.0703095
0.0361723 -0.0902369 0.071108
0.0360451 -0.0919566 0.0742928
0.0359398 -0.0912059 0.075786
0.0364353 -0.0905052 0.0767736
0.0372002 -0.089187 0.0761943
0.0376194 -0.0898828 0.0722101
0.0379734 -0.0910251 0.069827
0.0379726 -0.0920179 0.0697142
0.037963 -0.0932145 0.0706308
0.0378654 -0.0946876 0.0726746
0.0377789 -0.0956731 0.0745725
0.0374511 -0.096532 0.0761841
0.0369332 -0.0969995 0.0776263
0.0357534 -0.0977828 0.0794972
0.0344293 -0.0989808 0.0815286
0.0330975 -0.0992267 0.0840405
0.0315983 -0.098541 0.0870332
0.0312508 -0.0973309 0.0898616
0.0318642 -0.0957093 0.092077
0.0316219 -0.0944895 0.0938685
0.0305231 -0.0930595 0.0954283
0.0296501 -0.0908268 0.0965345
0.0295271 -0.0878587 0.0973368
0.0291296 -0.0839394 0.0974171
0.0267816 -0.08106 0.0970147
0.0263742 -0.0817172 0.0961574
0.0254367 -0.0831743 0.0952787
0.0248174 -0.0845863 0.0945215
0.0247041 -0.0849115 0.0939045
0.023697 -0.0842231 0.0935705
0.0235091 -0.0843648 0.0933782
0.0241033 -0.0842637 0.092829
0.0257075 -0.0838576 0.0918102
0.0259246 -0.0834768 0.0914263
0.0255057 -0.0836284 0.0917119
0.0262777 -0.0836144 0.0918867
0.0275391 -0.0836558 0.0919425
0.0295271 -0.0832368 0.0919208
0.0320915 -0.0832006 0.0918162
0.0353524 -0.0826184 0.091829
0.0379545 -0.0823095 0.0917526
0.0404098 -0.0825557 0.0908752
0.0421409 -0.0833487 0.0895572
0.041926 -0.0848566 0.087879
0.0408957 -0.0847476 0.0866027
0.0399727 -0.0839089 0.0846901
0.0388099 -0.0839372 0.0821824
0.0371936 -0.0842525 0.0796281
0.0356079 -0.084848 0.0776028
0.0341649 -0.085938 0.0760216
0.0336443 -0.0864983 0.074964
0.0330369 -0.0869422 0.0742835
0.0320038 -0.0875299 0.0735332
0.0307359 -0.087978 0.0728725
0.0281938 -0.0872112 0.0714197
0.0258517 -0.0856578 0.0691969
0.023739 -0.0842681 0.0666771
0.0217691 -0.0839429 0.0644474
0.0200291 -0.084312 0.0625191
0.0181626 -0.0839934 0.0598271
0.0160351 -0.0831147 0.0564953
0.0139303 -0.0811541 0.0525273
0.0134014 -0.0795669 0.0494931
0.0140662 -0.079893 0.0491487
0.0148081 -0.0805479 0.0485639
0.0153682 -0.0803505 0.0479555
0.015411 -0.0779736 0.045848
0.0151375 -0.0741751 0.0425338
0.015417 -0.0719978 0.0407545
-0.000998403 -0.0569715 0.0463922
-0.00590912 -0.0597375 0.0478303
0.00432784 -0.07562 0.0741315
0.0127156 -0.0796711 0.0826516
0.0138684 -0.0853852 0.0780484
0.0095385 -0.0870966 0.0697851
0.0092856 -0.0921612 0.0640048
0.0087346 -0.0981548 0.05915
0.00823427 -0.104391 0.0531109
0.0100017 -0.109772 0.0477307
0.0141943 -0.113887 0.044128
0.017924 -0.116867 0.0424044
0.0215779 -0.116955 0.043713
0.0217386 -0.114925 0.0405658
0.0236705 -0.112443 0.0370099
0.0246889 -0.109245 0.0294013
0.0252095 -0.105455 0.0206401
0.0241649 -0.104242 0.013839
0.0227225 -0.104348 0.0106029
0.0217419 -0.105181 0.0102723
0.0210825 -0.105926 0.0113815
0.0201314 -0.105983 0.0119697
0.0189033 -0.103565 0.0121819
0.0177772 -0.0974894 0.00892289
0.0176471 -0.0909681 0.00522215
0.0179035 -0.0847306 0.00205046
0.0180374 -0.0799077 -0.000746037
0.0179914 -0.0765416 -0.00331001
0.0182867 -0.075849 -0.00424233
0.0187524 -0.0775348 -0.00441614
0.0190226 -0.0798906 -0.00460297
0.0193026 -0.0831285 -0.00482768
0.0196656 -0.0855115 -0.00560278
0.0203331 -0.0883688 -0.00576085
0.0213316 -0.0907939 -0.00474093
0.0220523 -0.0934079 -0.00439221
0.0223626 -0.0952515 -0.00500659
0.0228988 -0.0965155 -0.00505115
0.0239409 -0.0972364 -0.00315792
0.0252098 -0.0981432 0.00138211
0.0255668 -0.0994938 0.00904272
0.02436 -0.100468 0.0174747
0.0229033 -0.101007 0.0225698
0.0220732 -0.101042 0.0242965
0.0223157 -0.0997246 0.0243102
0.0232203 -0.0977699 0.0234443
0.0244739 -0.0956806 0.021982
0.0261852 -0.0914533 0.0181496
0.0287522 -0.084613 0.00914097
0.0296154 -0.0763802 -0.00248922
0.0275656 -0.068371 -0.011848
0.0242425 -0.0612178 -0.01655
0.0216104 -0.0565488 -0.0187753
0.0200101 -0.0541805 -0.0193206
0.0201845 -0.0532998 -0.0173866
0.0216927 -0.055173 -0.0122175
0.0239111 -0.060416 -0.00464248
0.0249241 -0.0666028 0.00345535
0.0248186 -0.0711472 0.00950898
0.0233709 -0.0729612 0.0140956
0.0213648 -0.0737305 0.0167668
0.0201787 -0.074102 0.0169627
0.0193534 -0.0736611 0.0170823
0.0205657 -0.0765026 0.0182028
0.022301 -0.0803849 0.0200784
0.0243964 -0.0836992 0.0231261
0.0270289 -0.0847386 0.0254459
0.0293439 -0.084741 0.0277304
0.0326293 -0.0844601 0.0294776
0.033796 -0.0826408 0.0324481
0.0341042 -0.0823334 0.0352337
0.0330677 -0.0836726 0.0375573
0.0324941 -0.0851144 0.0393878
0.0328514 -0.0857724 0.0411054
0.033537 -0.0861458 0.0425751
0.0349931 -0.0862946 0.044058
0.0351736 -0.0859712 0.0442692
0.0351243 -0.0839485 0.0425586
0.0377425 -0.0822791 0.0403714
0.0410744 -0.0812128 0.0380584
0.0417554 -0.0816967 0.0380776
0.0388327 -0.0843588 0.0405544
0.0358022 -0.0863965 0.0431351
0.0354042 -0.0864141 0.0446383
0.0379396 -0.0852014 0.0444053
0.0421867 -0.0831088 0.0427158
0.0462509 -0.080174 0.0407126
0.0499448 -0.0779693 0.0396458
0.052588 -0.0763748 0.0378703
0.0530843 -0.0772863 0.0380217
0.049579 -0.0801485 0.0423062
0.0443712 -0.0836803 0.0475246
0.0400963 -0.0870667 0.0509088
0.0369408 -0.0893892 0.0530253
0.0351534 -0.0915022 0.0540772
0.0341 -0.0929519 0.0549427
0.0332285 -0.0938164 0.0559501
0.0324451 -0.0941783 0.0571655
0.0338689 -0.0940495 0.0574869
0.0361501 -0.0941495 0.0574384
0.0379425 -0.0942547 0.0577206
0.0379812 -0.0944561 0.0590264
0.0365098 -0.0951433 0.0609258
0.0354574 -0.0963985 0.0623516
0.0363203 -0.0961367 0.0629788
0.0373272 -0.0953039 0.0635862
0.0360979 -0.0958785 0.0652708
0.0347993 -0.0976355 0.0668376
0.0344833 -0.0981713 0.0679616
0.0342015 -0.0972802 0.0682508
0.0346809 -0.0967228 0.0688754
0.0364188 -0.0955849 0.0695379
0.0397653 -0.0923457 0.0681857
0.0447649 -0.0878493 0.064293
0.0456966 -0.0867303 0.0636113
0.0435703 -0.0882004 0.0648826
0.0360699 -0.0923287 0.0660519
0.0342178 -0.0924219 0.0683595
0.03546 -0.088381 0.0714999
0.0370197 -0.0860645 0.0707981
0.0378578 -0.0858026 0.0686138
0.0388391 -0.0847932 0.0688727
0.0367411 -0.0870768 0.0687693
0.0356882 -0.0903461 0.0704786
0.0353227 -0.0914472 0.0723731
0.0350046 -0.0904568 0.0738108
0.0359449 -0.0890442 0.0742382
0.0369834 -0.0885245 0.0726447
0.0372269 -0.0893368 0.0685587
0.0371001 -0.0904696 0.0670371
0.0372589 -0.0916447 0.0677376
0.0371181 -0.0930368 0.0689379
0.0366152 -0.0947887 0.0705459
0.0367538 -0.0957106 0.0724174
0.0368432 -0.0962154 0.0742154
0.0364257 -0.0965936 0.0756303
0.0356921 -0.0971649 0.0777167
0.0345121 -0.0979269 0.0798848
0.0335469 -0.0985523 0.0822474
0.0320457 -0.0982374 0.0846643
0.0314875 -0.0978015 0.0870032
0.0319145 -0.0965185 0.0888724
0.0322289 -0.0947269 0.0903727
0.0319975 -0.093149 0.0917273
0.0318787 -0.0918296 0.0930712
0.0322968 -0.0895149 0.0941797
0.0325962 -0.0862239 0.094932
0.0307374 -0.0826386 0.0952399
0.0286084 -0.0827411 0.0944036
0.0272824 -0.0844823 0.0938507
0.0278195 -0.0854353 0.093253
0.0276165 -0.0858873 0.0926922
0.0266605 -0.0854326 0.0922466
0.0270422 -0.0847889 0.0915559
0.0281275 -0.0845166 0.0910498
0.0284278 -0.0842352 0.0904507
0.0283283 -0.0835546 0.0902844
0.0285263 -0.0830488 0.090478
0.029888 -0.0828783 0.0906472
0.0322042 -0.0821302 0.0907188
0.0352365 -0.0816353 0.0905754
0.0386063 -0.0811217 0.0905415
0.0412303 -0.0802334 0.089314
0.0437445 -0.080272 0.087351
0.0452666 -0.0819059 0.0848059
0.0448861 -0.0838331 0.0837537
0.0433693 -0.0854143 0.0828753
0.0412636 -0.0856291 0.0821393
0.039489 -0.0855762 0.0811029
0.0379686 -0.0858353 0.0794391
0.0361536 -0.0860286 0.0776877
0.0345187 -0.0867901 0.0762113
0.0332542 -0.0875408 0.0750479
0.0324406 -0.087635 0.0742217
0.0317159 -0.0880379 0.0734384
0.0308727 -0.0885044 0.0727256
0.0304467 -0.0890856 0.0722163
0.0300241 -0.0895639 0.0716452
0.0279939 -0.0884599 0.0699761
0.0262983 -0.0871388 0.0680903
0.0244821 -0.0865356 0.0664984
0.0226364 -0.0861269 0.0652423
0.0212763 -0.0853216 0.0638181
0.0190104 -0.0832449 0.0616187
0.0176489 -0.0807559 0.0595019
0.0168489 -0.0802694 0.0573273
0.0163274 -0.0814073 0.0557855
0.016409 -0.0818021 0.0542044
0.016634 -0.07986 0.0513313
0.016421 -0.0747003 0.0459332
0.0160971 -0.0696783 0.0401307
0.0159998 -0.065951 0.0347635
0.0150398 -0.0619435 0.029017
0.00186124 -0.0568494 0.0421342
-0.00249642 -0.0587073 0.0450163
-0.0094216 -0.0659164 0.0464195
-0.00486768 -0.074502 0.0599137
-0.00191226 -0.0810542 0.059751
-0.000606398 -0.0847666 0.0576894
-0.000879443 -0.089235 0.0538897
9.66989e-05 -0.096932 0.0503999
-0.000449774 -0.105063 0.0422507
0.00334216 -0.110415 0.0381402
0.00779302 -0.114713 0.0357062
0.0114715 -0.117139 0.0356972
0.014765 -0.117114 0.0374095
0.0157519 -0.115148 0.0364435
0.016098 -0.111983 0.031685
0.0169149 -0.107595 0.02512
0.01707 -0.104679 0.0183896
0.0160918 -0.103868 0.0139958
0.0149442 -0.104719 0.0122984
0.0142001 -0.105857 0.0126759
0.0132392 -0.106915 0.0128922
0.0117753 -0.106681 0.0124345
0.0101698 -0.103052 0.0109931
0.00961532 -0.0978529 0.00868522
0.00970408 -0.0917189 0.00657113
0.01011 -0.0861427 0.00487239
0.0104327 -0.0810726 0.00355687
0.0105994 -0.0775335 0.00165705
0.00956966 -0.0771227 0.00208716
0.0117023 -0.0786339 0.00111375
0.012041 -0.0809419 0.000879825
0.0124336 -0.0838716 0.000697609
0.0130271 -0.0874591 0.000809764
0.0135252 -0.0898373 0.000458553
0.0142361 -0.0926878 0.000763628
0.0151301 -0.0947831 0.00174926
0.0157061 -0.0959222 0.00165266
0.0161029 -0.0965601 0.000982083
0.0166517 -0.0972725 0.00126589
0.017518 -0.0976612 0.00406899
0.0179941 -0.0981452 0.00913818
0.0179234 -0.0989138 0.0151734
0.0173368 -0.0988026 0.0199952
0.0169248 -0.0990187 0.0222283
0.0171291 -0.0988078 0.0221522
0.0176154 -0.0976523 0.0219461
0.0182469 -0.0964776 0.0212732
0.0193877 -0.093494 0.0185616
0.0211789 -0.0873854 0.0123892
0.0222108 -0.0801613 0.00384361
0.021197 -0.0727522 -0.00414158
0.0186678 -0.0667501 -0.00927126
0.0161935 -0.0620497 -0.0117868
0.0144597 -0.0584576 -0.0124997
0.0136494 -0.0564185 -0.0120787
0.0129776 -0.0567253 -0.00834591
0.0163665 -0.0596877 -0.00285622
0.0178486 -0.0641395 0.00296643
0.0183868 -0.0680188 0.00799914
0.0174602 -0.0705217 0.0124225
0.0157863 -0.0713377 0.0150655
0.0141535 -0.0717371 0.0158441
0.0139362 -0.0728386 0.0162177
0.0150681 -0.0750982 0.0177152
0.016717 -0.0788132 0.0198705
0.0189044 -0.0815217 0.0218964
0.0210966 -0.0834609 0.0248106
0.0231816 -0.0840288 0.0269949
0.0255194 -0.083576 0.0290132
0.0275172 -0.0829791 0.0313588
0.0264418 -0.0830275 0.0337299
0.0258059 -0.0839063 0.0358364
0.0259642 -0.0845697 0.0375436
0.0274717 -0.0851644 0.0384105
0.0296251 -0.0858355 0.04016
0.029853 -0.0859876 0.0413995
0.0296123 -0.0855845 0.0416855
0.0297828 -0.0843956 0.0410722
0.0311518 -0.083248 0.0399111
0.0334455 -0.0828879 0.0384046
0.0347276 -0.0832459 0.0380617
0.0334617 -0.0846267 0.0397018
0.0312366 -0.086324 0.042028
0.0313603 -0.0864898 0.0432603
0.0346944 -0.0849934 0.0422887
0.0388756 -0.0822083 0.0404062
0.0409448 -0.0802454 0.0401293
0.0413174 -0.0799228 0.0408982
0.0412505 -0.0804891 0.0417164
0.040463 -0.0819602 0.0430581
0.0385392 -0.0838149 0.0454547
0.0356746 -0.0862243 0.048459
0.0336865 -0.0880018 0.0504555
0.0320761 -0.0896872 0.0517746
0.0315008 -0.0907866 0.0524722
0.0314542 -0.0919387 0.0528945
0.0308901 -0.0927161 0.0538467
0.0303828 -0.0930039 0.0550246
0.0315822 -0.093162 0.0553494
0.0340587 -0.0929329 0.0550647
0.0358149 -0.0934393 0.0550643
0.0356389 -0.0940352 0.0563799
0.0342047 -0.0944678 0.0584981
0.0336557 -0.0952119 0.059802
0.0346786 -0.095307 0.0601995
0.0363802 -0.0940149 0.0603756
0.0357105 -0.0941563 0.0618775
0.0339736 -0.0959321 0.0637562
0.0331705 -0.0968728 0.0650486
0.033398 -0.0965103 0.065772
0.0339255 -0.09549 0.0661999
0.0360159 -0.0939234 0.0654302
0.0388703 -0.0911151 0.063239
0.0410806 -0.0888004 0.059699
0.0415098 -0.0893996 0.0608315
0.0390943 -0.0910664 0.0618006
0.0342792 -0.0931465 0.0635186
0.0328861 -0.0930104 0.0662571
0.0339382 -0.0907742 0.0696247
0.0354965 -0.0877415 0.0691441
0.0366676 -0.0867968 0.0668089
0.0367235 -0.0857951 0.0672207
0.036052 -0.08806 0.0674484
0.0355209 -0.0903313 0.0695404
0.0345847 -0.0907576 0.0710502
0.0346951 -0.0896212 0.0717757
0.0361812 -0.0877446 0.0714705
0.0374609 -0.0864744 0.0682238
0.0372909 -0.087798 0.0656448
0.0377025 -0.0896181 0.0652377
0.0376939 -0.0913164 0.0660367
0.0371602 -0.0927516 0.0673379
0.0364336 -0.0944693 0.0689387
0.0366106 -0.0955356 0.0708432
0.0373957 -0.0956997 0.0727656
0.0372334 -0.0960699 0.0742457
0.0363196 -0.0971179 0.0761487
0.0353037 -0.0978464 0.0783504
0.03414 -0.0982519 0.0804953
0.0331305 -0.0980789 0.0826
0.0331247 -0.0972008 0.0845839
0.0335926 -0.0964421 0.0861825
0.0339389 -0.0946309 0.0874828
0.0339153 -0.0932136 0.0887474
0.0340284 -0.0922902 0.0899542
0.0343231 -0.0906609 0.0911023
0.0343813 -0.0888704 0.0920393
0.0340391 -0.0865497 0.0925378
0.0319019 -0.0850572 0.0927802
0.0305513 -0.0857783 0.0924371
0.0303867 -0.0863491 0.092358
0.0314404 -0.0862737 0.0919093
0.0305265 -0.0857838 0.0911831
0.0312536 -0.085184 0.0905565
0.0320799 -0.084654 0.0900922
0.0323518 -0.0840418 0.089802
0.032127 -0.0833005 0.0897169
0.0326515 -0.0824583 0.089814
0.0350746 -0.0815944 0.0898046
0.03761 -0.0806014 0.0893449
0.0413723 -0.0792709 0.0881901
0.0431226 -0.0785841 0.0873057
0.0453985 -0.0784694 0.0847498
0.0469128 -0.0793916 0.0801931
0.0464256 -0.0817672 0.0787782
0.0448228 -0.084352 0.0787715
0.0428748 -0.0863288 0.0787025
0.040888 -0.0872463 0.078627
0.0389901 -0.0876797 0.0782859
0.0370714 -0.0876526 0.0774439
0.0351571 -0.0875912 0.0763476
0.0336273 -0.0881115 0.0753489
0.0326746 -0.0884724 0.0746126
0.0314038 -0.0889969 0.0737304
0.0306094 -0.0891456 0.0729402
0.0298201 -0.0894732 0.0722564
0.0295797 -0.0896711 0.0715392
0.029917 -0.0903912 0.0710612
0.0295106 -0.0904469 0.0701588
0.0289921 -0.0898766 0.0688924
0.0285384 -0.0890253 0.0675798
0.0279657 -0.0882893 0.066756
0.025269 -0.0871398 0.0665929
0.0230845 -0.0852174 0.0664243
0.0224461 -0.0836392 0.0657983
0.02107 -0.0834692 0.0642837
0.0194146 -0.0830883 0.0613782
0.0181454 -0.0828348 0.0592983
0.0171851 -0.0769058 0.0536995
0.0163656 -0.0702001 0.0456678
0.0157464 -0.0664824 0.0398148
0.0151605 -0.0637159 0.0331336
0.0152827 -0.0590309 0.0238657
0.000906724 -0.0615789 0.0374025
-0.00540735 -0.0685832 0.0377857
-0.00941069 -0.073825 0.0401936
-0.00945755 -0.0771478 0.0468106
-0.00838158 -0.0838081 0.0444912
-0.00718324 -0.0904875 0.0423691
-0.00772082 -0.0988484 0.0368882
-0.00461862 -0.106209 0.0332573
-0.00136332 -0.111449 0.0317423
0.00219847 -0.114809 0.0307938
0.00602583 -0.115748 0.0316562
0.00795645 -0.115375 0.0326527
0.00832084 -0.113904 0.0320021
0.00834089 -0.110303 0.0285655
0.00850555 -0.106782 0.0228413
0.00841692 -0.104686 0.0182502
0.0076695 -0.104901 0.0162871
0.00730593 -0.106384 0.0169398
0.00621563 -0.107715 0.0170042
0.00472113 -0.108142 0.0163434
0.00286683 -0.106603 0.0151263
0.00144348 -0.103279 0.0123731
0.00134649 -0.0986057 0.00982899
0.00171602 -0.093435 0.00875395
0.00220129 -0.086861 0.00808552
0.00247657 -0.0816722 0.00684864
0.00282325 -0.0787836 0.00622492
0.00342903 -0.0777505 0.00622165
0.00408312 -0.0789874 0.0062856
0.0046318 -0.0816027 0.00635499
0.00350513 -0.0837919 0.00679655
0.00570108 -0.0882189 0.00627754
0.00474345 -0.0913269 0.00735168
0.00508285 -0.0940241 0.00692632
0.0057048 -0.0965585 0.00707123
0.00645798 -0.0973346 0.00760194
0.00696013 -0.0970775 0.00695135
0.00888228 -0.0969252 0.00557695
0.00944102 -0.0964323 0.00640232
0.00840816 -0.0949293 0.00755979
0.00913929 -0.0943547 0.00968264
0.011179 -0.0948189 0.0147165
0.0113561 -0.0949643 0.0177347
0.0114291 -0.095771 0.0195618
0.0116838 -0.0958137 0.0197277
0.0107355 -0.0956671 0.0210758
0.0125961 -0.0947161 0.0200486
0.0136847 -0.0911608 0.0167982
0.0146123 -0.085306 0.0115298
0.0144214 -0.0793455 0.00577999
0.0128572 -0.0741637 0.000873013
0.0108328 -0.0699473 -0.00204914
0.00875521 -0.0652478 -0.00394616
0.00770152 -0.0612958 -0.00437373
0.00747073 -0.0605499 -0.00270097
0.0084878 -0.0616744 0.00153427
0.00809301 -0.0639534 0.00564968
0.00934796 -0.0663752 0.00898427
0.0114756 -0.0678733 0.0110635
0.0101248 -0.0701002 0.0149057
0.00827766 -0.0710142 0.015886
0.00737268 -0.0721497 0.0166014
0.00816288 -0.0740162 0.0181228
0.00977128 -0.0770878 0.01936
0.011699 -0.0800341 0.0213473
0.0138273 -0.0815427 0.0237795
0.0156774 -0.0827704 0.0259911
0.0179949 -0.0825695 0.0283999
0.0198009 -0.0826368 0.0308344
0.0202872 -0.0830118 0.0329814
0.0201217 -0.0838616 0.0349309
0.0212891 -0.084139 0.0361624
0.0232458 -0.0841291 0.0372293
0.0247075 -0.0847853 0.037988
0.0245368 -0.0857226 0.0392491
0.0239632 -0.0859544 0.0397826
0.0237419 -0.0852044 0.0396061
0.0242257 -0.0845809 0.0391197
0.0257219 -0.0841848 0.0385514
0.0272613 -0.0842392 0.0383151
0.027119 -0.0849277 0.0394953
0.0259386 -0.0860952 0.0414569
0.0259272 -0.086957 0.0426078
0.0283513 -0.085904 0.0421443
0.0317347 -0.0835893 0.0409073
0.0332894 -0.0821845 0.0409781
0.0323014 -0.0828848 0.0431323
0.0306679 -0.0843813 0.0454186
0.028883 -0.0862384 0.047494
0.0277382 -0.0878805 0.048895
0.0273748 -0.0888743 0.0498207
0.027088 -0.0891478 0.0508344
0.0271275 -0.0899948 0.0512674
0.0271351 -0.0909873 0.0516749
0.0277799 -0.0913218 0.0518825
0.0277671 -0.0916118 0.0526795
0.0276974 -0.0918703 0.0536306
0.0284637 -0.0923914 0.0540271
0.0306402 -0.0927254 0.0535578
0.0325953 -0.0923099 0.0534404
0.032682 -0.0930397 0.0544507
0.0315172 -0.0935453 0.0565509
0.0310513 -0.0942912 0.0578838
0.0318185 -0.0945157 0.0583369
0.0328876 -0.0938634 0.0587592
0.0331873 -0.0935356 0.059645
0.0324426 -0.0942572 0.0610349
0.0317366 -0.0950535 0.0622057
0.03231 -0.0943807 0.0625588
0.0336712 -0.0935346 0.0622392
0.0358405 -0.09172 0.0602263
0.0377237 -0.0894627 0.0571505
0.0384012 -0.0886953 0.0536125
0.0381556 -0.0907234 0.0564371
0.0369466 -0.0918605 0.057922
0.0344819 -0.0925352 0.0615638
0.033405 -0.0918674 0.0661092
0.0335115 -0.0900402 0.0684097
0.034665 -0.0874185 0.0662643
0.0350077 -0.0873976 0.064867
0.0352325 -0.0876186 0.0653805
0.0358236 -0.088397 0.0656749
0.0355317 -0.0898437 0.0679659
0.0347895 -0.0900329 0.0693037
0.0355447 -0.088339 0.0694207
0.0373804 -0.0851999 0.0678861
0.0379029 -0.0849548 0.0653575
0.0380566 -0.0866816 0.0636725
0.0380443 -0.0889651 0.0638609
0.0381857 -0.0909333 0.0647316
0.0376802 -0.0922385 0.066078
0.0374086 -0.0936046 0.0677574
0.0374598 -0.0945269 0.0696158
0.0386634 -0.09525 0.0715412
0.0391703 -0.0963686 0.0729335
0.0382749 -0.0979079 0.0746856
0.037236 -0.0985658 0.0767866
0.0351766 -0.0983768 0.0795897
0.0346329 -0.0979115 0.0815161
0.0349285 -0.0971594 0.083331
0.0361974 -0.0960356 0.0842552
0.0367041 -0.0945043 0.0854255
0.036865 -0.0926515 0.0865549
0.0369497 -0.0923876 0.0876924
0.0367591 -0.0914494 0.0886184
0.036521 -0.089859 0.089542
0.0364802 -0.0888146 0.0903022
0.0364426 -0.0880121 0.0908351
0.0359151 -0.0875303 0.0910131
0.0345114 -0.0869868 0.091153
0.0345648 -0.0866508 0.0909883
0.0351641 -0.0860029 0.0907341
0.0368654 -0.0851779 0.0903361
0.0375895 -0.0845116 0.0900127
0.0377372 -0.0835682 0.0894916
0.0366226 -0.0826804 0.0891612
0.0376714 -0.0813312 0.0890151
0.0406129 -0.0798537 0.0879384
0.042536 -0.0788359 0.0866416
0.0441023 -0.0776527 0.0848432
0.0450866 -0.0768859 0.0823758
0.0461708 -0.0773427 0.0786251
0.0464931 -0.0794963 0.0748149
0.0454095 -0.0823945 0.0741237
0.0436559 -0.0851469 0.0748302
0.0417794 -0.087532 0.0753213
0.0398881 -0.0891193 0.0757177
0.0379816 -0.0896268 0.0760027
0.0360753 -0.0894089 0.075966
0.0345259 -0.0885998 0.075796
0.0332464 -0.0886226 0.0750532
0.0320415 -0.0890392 0.0742872
0.030767 -0.0898238 0.0735341
0.0294425 -0.0902764 0.0727975
0.0287767 -0.0902934 0.0720373
0.0288815 -0.0901817 0.0711875
0.0290246 -0.0904142 0.0703921
0.0298196 -0.090524 0.0695041
0.0307411 -0.0900435 0.0682245
0.0316231 -0.0889515 0.0667251
0.0322653 -0.0881383 0.0658767
0.0315449 -0.0878201 0.0663449
0.0282559 -0.0872536 0.0681971
0.0259595 -0.0867454 0.0688721
0.0243656 -0.0862197 0.0678818
0.0228972 -0.0859164 0.0663347
0.0200989 -0.082481 0.063927
0.0177637 -0.0722812 0.0551799
0.0163271 -0.0665833 0.0465479
0.0134963 -0.0657701 0.041767
0.0139072 -0.0634344 0.0331528
0.0152345 -0.0585996 0.0230426
-0.000515829 -0.063564 0.0330755
-0.00232562 -0.0689256 0.0317622
-0.00459782 -0.0738758 0.0331713
-0.00704479 -0.0810927 0.0333705
-0.00886215 -0.0875393 0.0337503
-0.00907915 -0.0964324 0.0323291
-0.008046 -0.101141 0.0316276
-0.00657891 -0.106554 0.0304076
-0.0043675 -0.109951 0.0297424
-0.00214081 -0.113061 0.0281174
-0.00026179 -0.11359 0.0279425
0.000502222 -0.113631 0.0288521
0.00114246 -0.112012 0.0291508
0.00078185 -0.109316 0.0267707
0.00164412 -0.107177 0.023677
0.00117407 -0.106387 0.0213771
0.000510893 -0.106719 0.0209318
-0.000147064 -0.10764 0.0215674
-0.00123866 -0.108508 0.0213066
-0.00253517 -0.108357 0.0205933
-0.00405275 -0.106851 0.0185102
-0.00509743 -0.103741 0.0156526
-0.00707315 -0.0998116 0.0127295
-0.00642395 -0.0945223 0.0111518
-0.00592932 -0.0883891 0.0109153
-0.00555685 -0.0827937 0.010507
-0.00522008 -0.0798015 0.0100545
-0.00463585 -0.078396 0.0100002
-0.00406555 -0.0791899 0.0101007
-0.0034254 -0.0816241 0.00999478
-0.00287935 -0.0848993 0.0099545
-0.00224593 -0.0885347 0.010041
-0.00160665 -0.0925488 0.010436
-0.0010612 -0.0957873 0.0105485
-0.000610433 -0.0974623 0.0101021
-0.000113401 -0.0978768 0.00950884
0.000443357 -0.0968895 0.00953019
-0.000943205 -0.0956827 0.00940342
0.000960407 -0.0940317 0.00830568
0.00151387 -0.0917913 0.00761999
0.00243823 -0.0899905 0.00766433
0.00186863 -0.0885181 0.00831044
0.00444777 -0.0895606 0.0124847
0.00497991 -0.0910678 0.015938
0.00520579 -0.0936201 0.0192186
0.00398807 -0.0945122 0.0214576
0.00436766 -0.0952306 0.0226116
0.00498609 -0.0946346 0.0219308
0.00713537 -0.0906288 0.0183088
0.00596648 -0.0885883 0.0171129
0.00538815 -0.0846388 0.0139714
0.00397564 -0.0808602 0.0108102
0.00191691 -0.0766344 0.00789345
0.00112038 -0.0703854 0.00431285
0.000715188 -0.0674918 0.00565247
0.000847023 -0.0663849 0.00794072
0.00156987 -0.066793 0.0105704
0.00107137 -0.0683201 0.0131547
0.00237945 -0.0689307 0.01431
0.00365424 -0.0694428 0.0156511
0.00326167 -0.0708563 0.0168846
0.00203166 -0.0722547 0.0173475
0.0020899 -0.0735412 0.0179183
0.00314404 -0.0755357 0.0196134
0.00465913 -0.0783287 0.0213811
0.00626905 -0.080508 0.0237873
0.00814426 -0.0809287 0.0259644
0.0102105 -0.081551 0.027944
0.0119329 -0.0823111 0.0299028
0.0128676 -0.0829402 0.0317442
0.0138422 -0.083555 0.0334842
0.0156657 -0.0835417 0.0350806
0.0179846 -0.0831878 0.0360652
0.0193607 -0.0835207 0.0368517
0.0192128 -0.0847657 0.0377568
0.0184194 -0.0856304 0.0385435
0.0177386 -0.086107 0.0388653
0.0182074 -0.0853299 0.0388272
0.0195676 -0.0849226 0.0385079
0.0209586 -0.0851847 0.0383873
0.0216204 -0.085361 0.0393123
0.021099 -0.0863657 0.04112
0.0205353 -0.0872794 0.0430916
0.0213596 -0.0873896 0.0437657
0.0236894 -0.086157 0.0431549
0.0248232 -0.0854364 0.0435421
0.0244147 -0.0858094 0.0450684
0.0229855 -0.0869547 0.0471749
0.0211143 -0.0882311 0.0495113
0.0202688 -0.0892766 0.0508655
0.0210373 -0.0897259 0.0508536
0.0221979 -0.0895263 0.0506682
0.0231235 -0.0895222 0.0506789
0.0233574 -0.0904875 0.051139
0.023541 -0.0911564 0.051703
0.0236935 -0.091024 0.0525729
0.0236261 -0.0914872 0.0535112
0.0242624 -0.0922226 0.0538866
0.0259619 -0.092194 0.0536707
0.0281815 -0.0920682 0.0529615
0.029203 -0.092054 0.0531864
0.0285219 -0.0925362 0.0548876
0.0278189 -0.0935881 0.0564557
0.0278679 -0.0944999 0.0573166
0.0285013 -0.0939486 0.0579505
0.0291058 -0.0934109 0.0585935
0.0291756 -0.0934153 0.0594488
0.0297418 -0.0927549 0.0598491
0.030871 -0.0921203 0.0596555
0.0333789 -0.0905066 0.0573765
0.035839 -0.0876014 0.0529699
0.0385818 -0.0845928 0.0476707
0.0385012 -0.0860564 0.0480785
0.0371628 -0.0897691 0.0522725
0.0368309 -0.0911367 0.0556426
0.034754 -0.092031 0.0615856
0.0340434 -0.0909528 0.0656072
0.0339836 -0.0889767 0.0668604
0.0347967 -0.0871236 0.0642469
0.0351893 -0.0873658 0.0632485
0.0355143 -0.0884797 0.0635123
0.0354209 -0.0888097 0.0638389
0.0353877 -0.0892494 0.0657494
0.0357285 -0.0882988 0.0671344
0.0372146 -0.0852175 0.0665025
0.0379005 -0.0840499 0.0660081
0.0385473 -0.0839739 0.0637417
0.0389548 -0.0865888 0.0618063
0.0391213 -0.0886101 0.0622482
0.039183 -0.0900794 0.0635027
0.0389196 -0.0913924 0.0650767
0.0396638 -0.0923612 0.066907
0.0395753 -0.0932301 0.0685186
0.0402416 -0.0948443 0.0700532
0.040891 -0.0967489 0.0712241
0.0407297 -0.0981262 0.0730139
0.0399798 -0.0989255 0.0750486
0.0383496 -0.0987455 0.0771277
0.0369649 -0.098248 0.0798136
0.0377202 -0.0971623 0.0816004
0.0380437 -0.0959158 0.0829585
0.0391796 -0.0942792 0.0834791
0.0402637 -0.0924729 0.0845206
0.0406999 -0.0916804 0.0854569
0.0403178 -0.091379 0.0863766
0.0394165 -0.0900381 0.087965
0.0401481 -0.0894773 0.0882047
0.0402995 -0.0893687 0.0886772
0.0406998 -0.0889704 0.0891986
0.0393463 -0.0881293 0.0895565
0.0404582 -0.0873932 0.0890336
0.0405763 -0.0865163 0.0892372
0.0408809 -0.0855275 0.0893082
0.0414303 -0.0844794 0.0889109
0.0408619 -0.0834807 0.0886435
0.0417156 -0.0817544 0.0871392
0.0427168 -0.0803281 0.0863506
0.0436067 -0.0792155 0.0851801
0.0443193 -0.0778832 0.0834119
0.0446894 -0.0768007 0.0810637
0.0449548 -0.0763608 0.0782943
0.0451154 -0.0771516 0.0747859
0.0448496 -0.0799192 0.0719912
0.0436649 -0.0830604 0.0713345
0.041984 -0.0860257 0.0717491
0.0401072 -0.0887389 0.072443
0.0384137 -0.0906277 0.0733485
0.0367921 -0.0912463 0.0742693
0.035217 -0.0908383 0.0751661
0.0334601 -0.0901155 0.0751724
0.0322195 -0.0895305 0.0748078
0.0314079 -0.0901647 0.0743651
0.03046 -0.0906384 0.0736514
0.0290113 -0.0911385 0.0729161
0.0280838 -0.0908252 0.0719959
0.0282785 -0.08997 0.0708262
0.0289035 -0.0893463 0.0696468
0.0300541 -0.0892532 0.0684938
0.0316739 -0.0883895 0.0667856
0.0339943 -0.0870723 0.064968
0.0354734 -0.0863027 0.0639251
0.0352481 -0.0872034 0.0645074
0.0334929 -0.0882816 0.0661236
0.0299169 -0.0891659 0.0684722
0.028023 -0.0893854 0.068662
0.0253165 -0.0878763 0.0695756
0.0220584 -0.0784059 0.067134
0.0197533 -0.0686171 0.0576775
0.0157631 -0.0656629 0.0493001
0.0128077 -0.0662521 0.0458861
0.0123979 -0.0652871 0.0393793
0.0163457 -0.0596774 0.0219744
-0.00481428 -0.0647841 0.0313603
-0.00465352 -0.0663765 0.0309781
-0.0036801 -0.0695821 0.0294485
-0.00512613 -0.0740675 0.0288006
-0.00516231 -0.0780678 0.0282209
-0.00485809 -0.0853878 0.0283667
-0.00577749 -0.0967227 0.029141
-0.00718741 -0.106061 0.0291223
-0.00641017 -0.108808 0.0277908
-0.0060807 -0.11082 0.0265762
-0.0050725 -0.111944 0.0267283
-0.00557448 -0.111586 0.0270865
-0.00630212 -0.11083 0.0276394
-0.00840103 -0.109293 0.0268016
-0.0128135 -0.111053 0.0284113
-0.011988 -0.110312 0.0279666
-0.0129665 -0.110654 0.0276604
-0.0120675 -0.110531 0.027248
-0.0130001 -0.110439 0.0266055
-0.0141277 -0.109173 0.0242824
-0.0147822 -0.107077 0.0219044
-0.014987 -0.103928 0.0183958
-0.0145051 -0.100217 0.0161975
-0.0138203 -0.0954763 0.0142606
-0.013126 -0.0901368 0.0139405
-0.0127025 -0.0852815 0.0131234
-0.0119967 -0.0818873 0.0134024
-0.0113852 -0.080436 0.0130901
-0.0106059 -0.0803516 0.0134182
-0.0110332 -0.0823152 0.0136789
-0.0113402 -0.0861575 0.0137884
-0.0107082 -0.0892405 0.0135697
-0.0100602 -0.0925545 0.0137141
-0.00946037 -0.0958332 0.0137289
-0.00874123 -0.0975142 0.013659
-0.00834261 -0.0975218 0.0130719
-0.00805164 -0.0964624 0.0122535
-0.00703054 -0.0939216 0.0114021
-0.0070084 -0.0910932 0.00955365
-0.0072836 -0.0879121 0.00873297
-0.00608457 -0.0854511 0.00766655
-0.00487961 -0.0846447 0.00783021
-0.00377742 -0.0846349 0.00935227
-0.00284823 -0.0866867 0.0128946
-0.00203428 -0.0901888 0.0176447
-0.00176942 -0.0926767 0.0205806
-0.00125584 -0.0940886 0.0229716
-0.000645956 -0.0942596 0.0235724
-9.87923e-05 -0.0930379 0.0230136
-0.000208963 -0.0914455 0.0211516
-0.000799904 -0.0887289 0.0190109
-0.00215149 -0.0850433 0.0166489
-0.00388869 -0.08218 0.0143119
-0.00572941 -0.0812451 0.0140971
-0.0067293 -0.0781759 0.0142051
-0.00646405 -0.0739175 0.0153983
-0.0064064 -0.0717875 0.0166796
-0.00578545 -0.0710022 0.017615
-0.00544805 -0.0712866 0.0189552
-0.00373632 -0.0703879 0.0187712
-0.00214779 -0.0697031 0.0185113
-0.00107315 -0.0699236 0.0188737
-0.00117081 -0.0721845 0.0185902
-0.00109148 -0.0747 0.0197851
-0.000270374 -0.0766245 0.0218482
-0.000201014 -0.0793106 0.0252026
0.000205703 -0.0800505 0.0271559
0.00211413 -0.0805114 0.0284418
0.00395948 -0.0816568 0.0293169
0.00572954 -0.0823634 0.0308365
0.00770954 -0.0828444 0.0329324
0.0102173 -0.0828077 0.0347901
0.0125823 -0.0828898 0.035395
0.0138326 -0.0825754 0.0360046
0.0137515 -0.0831254 0.0371136
0.0130692 -0.084317 0.0380507
0.0126686 -0.0851897 0.0384108
0.0130741 -0.0853737 0.0385561
0.0148132 -0.0850414 0.0377363
0.0171503 -0.0845915 0.0363859
0.0182666 -0.0847565 0.0369915
0.0176677 -0.0859466 0.0398502
0.0162479 -0.0870928 0.0433841
0.0160092 -0.0876559 0.0453121
0.0167587 -0.087447 0.0460997
0.0176634 -0.0873776 0.0463491
0.0178295 -0.0876509 0.0469908
0.0177922 -0.0877063 0.0476992
0.0172644 -0.0881955 0.0488928
0.0167574 -0.0890254 0.0501878
0.0173728 -0.0888191 0.0505645
0.0191369 -0.0884988 0.0497905
0.0204692 -0.088534 0.0493919
0.0203818 -0.0895147 0.0503256
0.0196996 -0.090581 0.0518236
0.0192881 -0.0914728 0.0529699
0.0191829 -0.0922287 0.0537962
0.0197767 -0.0923403 0.0542552
0.0210741 -0.0921529 0.0541947
0.0232211 -0.0921383 0.0532021
0.0247252 -0.0920792 0.0527941
0.0250638 -0.0918183 0.0536461
0.0246363 -0.0927821 0.0549914
0.0238685 -0.0943325 0.0564833
0.0240716 -0.0945034 0.0573595
0.0254313 -0.092961 0.0575762
0.0265858 -0.0913567 0.0578971
0.0284688 -0.0901136 0.0570202
0.0304107 -0.0888847 0.055544
0.0346578 -0.0849546 0.0506794
0.0394125 -0.0799655 0.0425162
0.0405529 -0.0806603 0.0413692
0.0399417 -0.0841043 0.0447812
0.0381961 -0.0882825 0.051318
0.0364959 -0.0905916 0.0558511
0.0346323 -0.0917079 0.0623175
0.0340293 -0.0905921 0.0649346
0.0344585 -0.0885567 0.0653447
0.0354693 -0.0865393 0.0621424
0.0353962 -0.0869425 0.061522
0.0359345 -0.0877002 0.0608965
0.0361979 -0.0887917 0.0624703
0.0360376 -0.0882512 0.0638111
0.037457 -0.0858497 0.0645761
0.0385493 -0.0838672 0.0642358
0.0392088 -0.0828592 0.0625009
0.0394127 -0.084344 0.0603261
0.0392669 -0.0863021 0.059894
0.0396602 -0.0875872 0.0608142
0.0400309 -0.08893 0.0621015
0.0405946 -0.0899544 0.0636765
0.0413024 -0.0911039 0.065183
0.0415214 -0.0928485 0.0666174
0.0418586 -0.0945877 0.067893
0.0419897 -0.0963543 0.0687986
0.0414338 -0.0979088 0.0714263
0.0408296 -0.0985758 0.0734674
0.0398411 -0.0986117 0.075736
0.0389324 -0.0978783 0.0777135
0.0396254 -0.0970395 0.0786397
0.0404199 -0.0955519 0.0799235
0.0410443 -0.0941245 0.0806931
0.0424822 -0.0923692 0.081372
0.0434938 -0.0909876 0.0820854
0.0437851 -0.0907218 0.0830506
0.0434027 -0.0901382 0.0850961
0.0436798 -0.0898362 0.0857699
0.0437551 -0.0897766 0.086266
0.0445283 -0.0894354 0.085485
0.0449779 -0.0888069 0.0854872
0.0450522 -0.0878309 0.0856486
0.0445233 -0.0870722 0.0863918
0.0443194 -0.0860409 0.0867849
0.0442398 -0.084481 0.0864574
0.0441962 -0.0829854 0.0854222
0.0444477 -0.0816686 0.0842656
0.0447624 -0.0804296 0.0832541
0.0447403 -0.0788506 0.0820447
0.044594 -0.0774735 0.0802203
0.0443927 -0.0766081 0.0777468
0.0441685 -0.0762558 0.0748626
0.0435707 -0.0775307 0.0719565
0.0427354 -0.0801701 0.0698702
0.0415823 -0.0832669 0.069132
0.0400882 -0.0866963 0.0692961
0.0386665 -0.0893805 0.0702341
0.0376582 -0.0913623 0.0716031
0.0364744 -0.0925306 0.0727489
0.0344423 -0.0926488 0.0741956
0.0329859 -0.0926035 0.0746258
0.0314713 -0.0913688 0.074796
0.0307002 -0.0911981 0.0744228
0.0301818 -0.0915328 0.0739476
0.0290771 -0.091597 0.0732162
0.0279965 -0.0912767 0.0722282
0.0281364 -0.0896164 0.0708379
0.0296778 -0.0881621 0.069237
0.0305635 -0.0878989 0.0678318
0.0319719 -0.0870197 0.0659304
0.0349853 -0.0847558 0.0633104
0.0372985 -0.0843255 0.0621433
0.0372941 -0.0858096 0.0623623
0.0354742 -0.0889846 0.0638326
0.0331389 -0.0910078 0.0658598
0.0303908 -0.0911652 0.0682751
0.0273695 -0.087257 0.0720929
0.0245801 -0.0751152 0.0702116
0.0210624 -0.0679525 0.0610535
0.0154841 -0.0666164 0.0533466
0.0130859 -0.0674869 0.0503905
0.0124541 -0.0671996 0.0480459
0.0164388 -0.063136 0.0346087
0.0193794 -0.0606058 0.0237244
-0.00954786 -0.066091 0.0310525
-0.00966565 -0.0673963 0.0309613
-0.0112477 -0.0697343 0.0299379
-0.010817 -0.0714351 0.0297302
-0.0109516 -0.0733456 0.0298647
-0.0195334 -0.0831845 0.0195208
-0.0192472 -0.0839201 0.0190857
-0.0195332 -0.0869353 0.0186995
-0.0188182 -0.0898709 0.0178911
-0.0179725 -0.0924899 0.017653
-0.0172742 -0.09452 0.0174284
-0.0165948 -0.0963928 0.0172355
-0.0161035 -0.0961618 0.0167229
-0.0148955 -0.0954184 0.0154064
-0.0144765 -0.0927169 0.0140668
-0.0125778 -0.0895072 0.0116525
-0.0136658 -0.0857882 0.0107531
-0.0127524 -0.0830981 0.00978691
-0.0129886 -0.0805531 0.0103706
-0.0118796 -0.0814174 0.0110446
-0.0113132 -0.0828128 0.0123859
-0.00959527 -0.0869337 0.0168933
-0.00896311 -0.0887842 0.0193315
-0.00821202 -0.0912576 0.0220558
-0.00654339 -0.0925713 0.0238783
-0.00633983 -0.092951 0.024301
-0.00667852 -0.0923995 0.0232357
-0.00733873 -0.0908599 0.0226608
-0.00857417 -0.0887249 0.0209002
-0.00983058 -0.0870647 0.0200473
-0.0112294 -0.0851269 0.0188877
-0.0121955 -0.0830119 0.0193952
-0.0128161 -0.0800534 0.019977
-0.0128845 -0.0774691 0.0214142
-0.0134616 -0.0746096 0.0229
-0.0131165 -0.0738699 0.0238745
-0.0126316 -0.0722553 0.0246933
-0.0094569 -0.0699824 0.0234553
-0.00836978 -0.068977 0.0232885
-0.00827592 -0.0685759 0.0241129
-0.00691044 -0.0675682 0.0239766
-0.00625334 -0.0694133 0.0250874
-0.00643895 -0.0737357 0.0250877
-0.0065261 -0.0781863 0.0274531
-0.00540933 -0.0786667 0.0286577
-0.00338905 -0.0792869 0.0298841
-0.000863215 -0.080179 0.0308986
0.00209386 -0.0804296 0.0329014
0.00471083 -0.0812956 0.034419
0.0067101 -0.0820524 0.0356697
0.00779504 -0.0825918 0.0364536
0.00792649 -0.082623 0.0375738
0.00761404 -0.0833458 0.0386366
0.00759036 -0.0844848 0.0389119
0.00868991 -0.0848026 0.0382673
0.0110555 -0.0843078 0.0361933
0.0142314 -0.0826712 0.0328553
0.0161388 -0.0815757 0.0319841
0.0155876 -0.0828645 0.0357348
0.0138555 -0.0847564 0.0414068
0.0128535 -0.0857919 0.0450915
0.0126945 -0.0867565 0.0466033
0.0126756 -0.0873402 0.0477491
0.0131883 -0.087083 0.0481187
0.0142391 -0.0866911 0.0473644
0.0154967 -0.0864435 0.0462847
0.0157016 -0.0870786 0.046898
0.0158035 -0.0875553 0.047969
0.0167513 -0.0872624 0.0482236
0.0175146 -0.0875886 0.0484894
0.0171104 -0.0887298 0.0499917
0.0161174 -0.0901338 0.0519068
0.0152265 -0.0913936 0.0534661
0.0149417 -0.0924881 0.0543249
0.0154659 -0.0929227 0.0545242
0.0166531 -0.0923531 0.0543728
0.0184751 -0.0919504 0.0535114
0.0201526 -0.0918694 0.0527504
0.0211389 -0.0916274 0.0528958
0.0212448 -0.0924522 0.0537856
0.0210765 -0.0933816 0.0549825
0.0211901 -0.0934693 0.0561356
0.0225963 -0.0918698 0.0564425
0.0249954 -0.089213 0.0558243
0.0268759 -0.087666 0.0548073
0.0331227 -0.0835382 0.0508973
0.0425901 -0.0769863 0.0433582
0.0427403 -0.0776967 0.0390994
0.0406804 -0.080528 0.038563
0.0394175 -0.0844532 0.0428002
0.0382174 -0.0889176 0.0513668
0.0365505 -0.0911503 0.0578503
0.0354511 -0.0917992 0.062483
0.0345652 -0.0907658 0.0645367
0.0347438 -0.0884236 0.063954
0.0356429 -0.0866046 0.0598045
0.0363008 -0.0862767 0.0581059
0.0364797 -0.0863657 0.0583451
0.0365872 -0.0877093 0.0605398
0.0370938 -0.0871125 0.0618542
0.0380746 -0.0846697 0.062366
0.0385439 -0.0832155 0.0619546
0.0389635 -0.0830024 0.0600168
