-0.210938 0.0078125 -0.586977 0 0 1
-0.210938 0.015625 -0.588912 0 0 1
-0.210938 0.0234375 -0.584934 0 0 1
-0.210938 0.03125 -0.581058 0 0 1
-0.210938 0.0390625 -0.577639 0 0 1
-0.210938 0.046875 -0.574733 0 0 1
-0.210938 0.0546875 -0.571827 0 0 1
-0.210938 0.0625 -0.569554 0 0 1
-0.210938 0.0703125 -0.567094 0 0 1
-0.210938 0.078125 -0.565068 0 0 1
-0.210938 0.0859375 -0.563358 0 0 1
-0.210938 0.09375 -0.562065 0 0 1
-0.210938 0.101562 -0.561427 0 0 1
-0.210938 0.109375 -0.561327 0 0 1
-0.210938 0.117188 -0.561799 0 0 1
-0.210938 0.125 -0.56302 0 0 1
-0.210938 0.132812 -0.564627 0 0 1
-0.210938 0.140625 -0.565398 0 0 1
-0.210938 0.148438 -0.566015 0 0 1
-0.210938 0.15625 -0.565893 0 0 1
-0.210938 0.164062 -0.565721 0 0 1
-0.210938 0.171875 -0.565264 0 0 1
-0.210938 0.179688 -0.564896 0 0 1
-0.210938 0.1875 -0.56433 0 0 1
-0.210938 0.195312 -0.562721 0 0 1
-0.210938 0.203125 -0.561419 0 0 1
-0.210938 0.210938 -0.560142 0 0 1
-0.210938 0.21875 -0.559523 0 0 1
-0.210938 0.226562 -0.559075 0 0 1
-0.210938 0.234375 -0.558796 0 0 1
-0.210938 0.242188 -0.55884 0 0 1
-0.210938 0.25 -0.558824 0 0 1
-0.210938 0.257812 -0.558671 0 0 1
-0.210938 0.265625 -0.558334 0 0 1
-0.210938 0.273438 -0.557782 0 0 1
-0.210938 0.28125 -0.557375 0 0 1
-0.210938 0.289062 -0.556923 0 0 1
-0.210938 0.296875 -0.555861 0 0 1
-0.210938 0.304688 -0.554605 0 0 1
-0.210938 0.3125 -0.552898 0 0 1
-0.210938 0.320312 -0.550557 0 0 1
-0.210938 0.328125 -0.548868 0 0 1
-0.210938 0.335938 -0.547375 0 0 1
-0.210938 0.34375 -0.546601 0 0 1
-0.210938 0.351562 -0.546142 0 0 1
-0.210938 0.359375 -0.546378 0 0 1
-0.210938 0.367188 -0.54652 0 0 1
-0.210938 0.375 -0.547087 0 0 1
-0.210938 0.382812 -0.548077 0 0 1
-0.210938 0.390625 -0.549842 0 0 1
-0.210938 0.398438 -0.552374 0 0 1
-0.210938 0.40625 -0.554962 0 0 1
-0.210938 0.414062 -0.557595 0 0 1
-0.210938 0.421875 -0.559874 0 0 1
-0.210938 0.429688 -0.562752 0 0 1
-0.210938 0.4375 -0.565936 0 0 1
-0.210938 0.445312 -0.568943 0 0 1
-0.210938 0.453125 -0.571507 0 0 1
-0.210938 0.460938 -0.573773 0 0 1
-0.210938 0.46875 -0.575355 0 0 1
-0.210938 0.476562 -0.575984 0 0 1
-0.210938 0.484375 -0.577424 0 0 1
-0.210938 0.492188 -0.582232 0 0 1
-0.210938 0.5 -0.589147 0 0 1
-0.210938 0.507812 -0.59277 0 0 1
-0.210938 0.515625 -0.592465 0 0 1
-0.210938 0.523438 -0.590855 0 0 1
-0.210938 0.53125 -0.587061 0 0 1
-0.210938 0.539062 -0.581792 0 0 1
-0.210938 0.546875 -0.577533 0 0 1
-0.210938 0.554688 -0.574571 0 0 1
-0.210938 0.5625 -0.572218 0 0 1
-0.210938 0.570312 -0.569682 0 0 1
-0.210938 0.578125 -0.566156 0 0 1
-0.210938 0.585938 -0.559161 0 0 1
-0.210938 0.59375 -0.512131 0 0 1
-0.210938 0.601562 -0.504118 0 0 1
-0.210938 0.609375 -0.497909 0 0 1
-0.210938 0.617188 -0.493836 0 0 1
-0.210938 0.625 -0.490741 0 0 1
-0.210938 0.632812 -0.488145 0 0 1
-0.210938 0.640625 -0.485814 0 0 1
-0.210938 0.648438 -0.485047 0 0 1
-0.210938 0.65625 -0.485165 0 0 1
-0.210938 0.664062 -0.486362 0 0 1
-0.210938 0.671875 -0.48492 0 0 1
-0.210938 0.679688 -0.48039 0 0 1
-0.210938 0.6875 -0.475901 0 0 1
-0.210938 0.695312 -0.473836 0 0 1
-0.210938 0.703125 -0.475541 0 0 1
-0.210938 0.710938 -0.476989 0 0 1
-0.210938 0.71875 -0.477381 0 0 1
-0.210938 0.726562 -0.477296 0 0 1
-0.210938 0.734375 -0.478262 0 0 1
-0.210938 0.742188 -0.479804 0 0 1
-0.210938 0.75 -0.483974 0 0 1
-0.210938 0.757812 -0.488701 0 0 1
-0.210938 0.765625 -0.493149 0 0 1
-0.210938 0.773438 -0.498402 0 0 1
-0.210938 0.78125 -0.504166 0 0 1
-0.210938 0.789062 -0.513227 0 0 1
-0.210938 0.796875 -0.52938 0 0 1
-0.210938 0.804688 -0.548519 0 0 1
-0.203125 -0.9375 -0.744155 0 0 1
-0.203125 -0.929688 -0.739496 0 0 1
-0.203125 -0.921875 -0.736999 0 0 1
-0.203125 -0.914062 -0.736909 0 0 1
-0.203125 -0.90625 -0.738745 0 0 1
-0.203125 -0.898438 -0.741271 0 0 1
-0.203125 -0.890625 -0.743418 0 0 1
-0.203125 -0.882812 -0.744204 0 0 1
-0.203125 -0.875 -0.745409 0 0 1
-0.203125 -0.851562 -0.746145 0 0 1
-0.203125 -0.84375 -0.7469 0 0 1
-0.203125 -0.835938 -0.747983 0 0 1
-0.203125 -0.828125 -0.745959 0 0 1
-0.203125 -0.820312 -0.746768 0 0 1
-0.203125 -0.8125 -0.746716 0 0 1
-0.203125 -0.804688 -0.746089 0 0 1
-0.203125 -0.796875 -0.745168 0 0 1
-0.203125 -0.789062 -0.743437 0 0 1
-0.203125 -0.78125 -0.74286 0 0 1
-0.203125 -0.773438 -0.742035 0 0 1
-0.203125 -0.765625 -0.740897 0 0 1
-0.203125 -0.757812 -0.740351 0 0 1
-0.203125 -0.75 -0.741452 0 0 1
-0.203125 -0.742188 -0.740509 0 0 1
-0.203125 -0.734375 -0.73961 0 0 1
-0.203125 -0.726562 -0.737332 0 0 1
-0.203125 -0.71875 -0.737335 0 0 1
-0.203125 -0.710938 -0.735736 0 0 1
-0.203125 -0.703125 -0.734308 0 0 1
-0.203125 -0.695312 -0.732952 0 0 1
-0.203125 -0.6875 -0.732894 0 0 1
-0.203125 -0.679688 -0.730447 0 0 1
-0.203125 -0.671875 -0.728799 0 0 1
-0.203125 -0.664062 -0.72748 0 0 1
-0.203125 -0.65625 -0.726799 0 0 1
-0.203125 -0.648438 -0.725706 0 0 1
-0.203125 -0.640625 -0.724808 0 0 1
-0.203125 -0.632812 -0.724203 0 0 1
-0.203125 -0.625 -0.723644 0 0 1
-0.203125 -0.617188 -0.723305 0 0 1
-0.203125 -0.609375 -0.723666 0 0 1
-0.203125 -0.601562 -0.724348 0 0 1
-0.203125 -0.59375 -0.72513 0 0 1
-0.203125 -0.585938 -0.725097 0 0 1
-0.203125 -0.578125 -0.725519 0 0 1
-0.203125 -0.570312 -0.72647 0 0 1
-0.203125 -0.5625 -0.727181 0 0 1
-0.203125 -0.554688 -0.728045 0 0 1
-0.203125 -0.546875 -0.728591 0 0 1
-0.203125 -0.539062 -0.728733 0 0 1
-0.203125 -0.53125 -0.729048 0 0 1
-0.203125 -0.523438 -0.728652 0 0 1
-0.203125 -0.515625 -0.728053 0 0 1
-0.203125 -0.507812 -0.726643 0 0 1
-0.203125 -0.5 -0.72457 0 0 1
-0.203125 -0.492188 -0.723164 0 0 1
-0.203125 -0.484375 -0.721996 0 0 1
-0.203125 -0.476562 -0.72073 0 0 1
-0.203125 -0.46875 -0.718828 0 0 1
-0.203125 -0.460938 -0.716824 0 0 1
-0.203125 -0.453125 -0.715729 0 0 1
-0.203125 -0.445312 -0.714283 0 0 1
-0.203125 -0.4375 -0.711079 0 0 1
-0.203125 -0.429688 -0.705976 0 0 1
-0.203125 -0.421875 -0.700211 0 0 1
-0.203125 -0.414062 -0.695338 0 0 1
-0.203125 -0.40625 -0.691281 0 0 1
-0.203125 -0.398438 -0.688193 0 0 1
-0.203125 -0.390625 -0.685441 0 0 1
-0.203125 -0.382812 -0.683167 0 0 1
-0.203125 -0.375 -0.680638 0 0 1
-0.203125 -0.367188 -0.678137 0 0 1
-0.203125 -0.359375 -0.675532 0 0 1
-0.203125 -0.351562 -0.673417 0 0 1
-0.203125 -0.34375 -0.671645 0 0 1
-0.203125 -0.335938 -0.669513 0 0 1
-0.203125 -0.328125 -0.667647 0 0 1
-0.203125 -0.320312 -0.665667 0 0 1
-0.203125 -0.3125 -0.66399 0 0 1
-0.203125 -0.304688 -0.662338 0 0 1
-0.203125 -0.296875 -0.660313 0 0 1
-0.203125 -0.289062 -0.6584 0 0 1
-0.203125 -0.28125 -0.656387 0 0 1
-0.203125 -0.273438 -0.654599 0 0 1
-0.203125 -0.265625 -0.652697 0 0 1
-0.203125 -0.257812 -0.650825 0 0 1
-0.203125 -0.25 -0.648925 0 0 1
-0.203125 -0.242188 -0.64659 0 0 1
-0.203125 -0.234375 -0.644665 0 0 1
-0.203125 -0.226562 -0.642696 0 0 1
-0.203125 -0.21875 -0.640717 0 0 1
-0.203125 -0.210938 -0.638839 0 0 1
-0.203125 -0.203125 -0.63676 0 0 1
-0.203125 -0.195312 -0.634672 0 0 1
-0.203125 -0.1875 -0.632747 0 0 1
-0.203125 -0.179688 -0.630753 0 0 1
-0.203125 -0.171875 -0.628809 0 0 1
-0.203125 -0.164062 -0.627002 0 0 1
-0.203125 -0.15625 -0.625439 0 0 1
-0.203125 -0.148438 -0.624006 0 0 1
-0.203125 -0.140625 -0.62258 0 0 1
-0.203125 -0.132812 -0.621339 0 0 1
-0.203125 -0.125 -0.62008 0 0 1
-0.203125 -0.117188 -0.618973 0 0 1
-0.203125 -0.109375 -0.618314 0 0 1
-0.203125 -0.101562 -0.618046 0 0 1
-0.203125 -0.09375 -0.617073 0 0 1
-0.203125 -0.0859375 -0.602171 0 0 1
-0.203125 -0.078125 -0.599038 0 0 1
-0.203125 -0.0703125 -0.599849 0 0 1
-0.203125 -0.0625 -0.595338 0 0 1
-0.203125 -0.0546875 -0.600844 0 0 1
-0.203125 -0.046875 -0.603973 0 0 1
-0.203125 -0.0390625 -0.597879 0 0 1
-0.203125 -0.03125 -0.599075 0 0 1
-0.203125 -0.0234375 -0.597961 0 0 1
-0.203125 -0.015625 -0.596165 0 0 1
-0.203125 -0.0078125 -0.594322 0 0 1
-0.203125 0 -0.592876 0 0 1
-0.203125 0.0078125 -0.590342 0 0 1
-0.203125 0.015625 -0.593708 0 0 1
-0.203125 0.0234375 -0.590908 0 0 1
-0.203125 0.03125 -0.586339 0 0 1
-0.203125 0.0390625 -0.582696 0 0 1
-0.203125 0.046875 -0.579788 0 0 1
-0.203125 0.0546875 -0.577227 0 0 1
-0.203125 0.0625 -0.574917 0 0 1
-0.203125 0.0703125 -0.572696 0 0 1
-0.203125 0.078125 -0.570855 0 0 1
-0.203125 0.0859375 -0.569357 0 0 1
-0.203125 0.09375 -0.568207 0 0 1
-0.203125 0.101562 -0.567922 0 0 1
-0.203125 0.109375 -0.568069 0 0 1
-0.203125 0.117188 -0.568722 0 0 1
-0.203125 0.125 -0.569782 0 0 1
-0.203125 0.132812 -0.571298 0 0 1
-0.203125 0.140625 -0.572219 0 0 1
-0.203125 0.148438 -0.572667 0 0 1
-0.203125 0.15625 -0.572297 0 0 1
-0.203125 0.164062 -0.572046 0 0 1
-0.203125 0.171875 -0.571346 0 0 1
-0.203125 0.179688 -0.570738 0 0 1
-0.203125 0.1875 -0.570132 0 0 1
-0.203125 0.195312 -0.568146 0 0 1
-0.203125 0.203125 -0.566441 0 0 1
-0.203125 0.210938 -0.565588 0 0 1
-0.203125 0.21875 -0.564587 0 0 1
-0.203125 0.226562 -0.564051 0 0 1
-0.203125 0.234375 -0.564205 0 0 1
-0.203125 0.242188 -0.563986 0 0 1
-0.203125 0.25 -0.563324 0 0 1
-0.203125 0.257812 -0.563094 0 0 1
-0.203125 0.265625 -0.562581 0 0 1
-0.203125 0.273438 -0.562119 0 0 1
-0.203125 0.28125 -0.561387 0 0 1
-0.203125 0.289062 -0.560134 0 0 1
-0.203125 0.296875 -0.558887 0 0 1
-0.203125 0.304688 -0.557169 0 0 1
-0.203125 0.3125 -0.554835 0 0 1
-0.203125 0.320312 -0.552476 0 0 1
-0.203125 0.328125 -0.550294 0 0 1
-0.203125 0.335938 -0.54877 0 0 1
-0.203125 0.34375 -0.547805 0 0 1
-0.203125 0.351562 -0.547698 0 0 1
-0.203125 0.359375 -0.547572 0 0 1
-0.203125 0.367188 -0.547796 0 0 1
-0.203125 0.375 -0.548499 0 0 1
-0.203125 0.382812 -0.549623 0 0 1
-0.203125 0.390625 -0.551618 0 0 1
-0.203125 0.398438 -0.554012 0 0 1
-0.203125 0.40625 -0.556433 0 0 1
-0.203125 0.414062 -0.559132 0 0 1
-0.203125 0.421875 -0.561598 0 0 1
-0.203125 0.429688 -0.564381 0 0 1
-0.203125 0.4375 -0.567698 0 0 1
-0.203125 0.445312 -0.571068 0 0 1
-0.203125 0.453125 -0.573962 0 0 1
-0.203125 0.460938 -0.576286 0 0 1
-0.203125 0.46875 -0.577888 0 0 1
-0.203125 0.476562 -0.578469 0 0 1
-0.203125 0.484375 -0.579601 0 0 1
-0.203125 0.492188 -0.584298 0 0 1
-0.203125 0.5 -0.59332 0 0 1
-0.203125 0.507812 -0.600395 0 0 1
-0.203125 0.515625 -0.601403 0 0 1
-0.203125 0.523438 -0.601166 0 0 1
-0.203125 0.53125 -0.599817 0 0 1
-0.203125 0.539062 -0.597178 0 0 1
-0.203125 0.546875 -0.593257 0 0 1
-0.203125 0.554688 -0.587265 0 0 1
-0.203125 0.5625 -0.58272 0 0 1
-0.203125 0.570312 -0.578766 0 0 1
-0.203125 0.578125 -0.5755 0 0 1
-0.203125 0.585938 -0.571431 0 0 1
-0.203125 0.59375 -0.566581 0 0 1
-0.203125 0.601562 -0.521284 0 0 1
-0.203125 0.609375 -0.513241 0 0 1
-0.203125 0.617188 -0.506701 0 0 1
-0.203125 0.625 -0.499825 0 0 1
-0.203125 0.632812 -0.495021 0 0 1
-0.203125 0.640625 -0.491195 0 0 1
-0.203125 0.648438 -0.489295 0 0 1
-0.203125 0.65625 -0.489238 0 0 1
-0.203125 0.664062 -0.4909 0 0 1
-0.203125 0.671875 -0.491684 0 0 1
-0.203125 0.679688 -0.48743 0 0 1
-0.203125 0.6875 -0.48179 0 0 1
-0.203125 0.695312 -0.479118 0 0 1
-0.203125 0.703125 -0.48297 0 0 1
-0.203125 0.710938 -0.484165 0 0 1
-0.203125 0.71875 -0.484213 0 0 1
-0.203125 0.726562 -0.485037 0 0 1
-0.203125 0.734375 -0.484655 0 0 1
-0.203125 0.742188 -0.488103 0 0 1
-0.203125 0.75 -0.492617 0 0 1
-0.203125 0.757812 -0.497121 0 0 1
-0.203125 0.765625 -0.50203 0 0 1
-0.203125 0.773438 -0.506969 0 0 1
-0.203125 0.78125 -0.513674 0 0 1
-0.203125 0.789062 -0.525028 0 0 1
-0.203125 0.796875 -0.54212 0 0 1
-0.203125 0.804688 -0.561414 0 0 1
-0.195312 -0.945312 -0.758403 0 0 1
-0.195312 -0.9375 -0.737843 0 0 1
-0.195312 -0.929688 -0.730757 0 0 1
-0.195312 -0.921875 -0.729735 0 0 1
-0.195312 -0.914062 -0.731221 0 0 1
-0.195312 -0.90625 -0.733117 0 0 1
-0.195312 -0.898438 -0.734879 0 0 1
-0.195312 -0.890625 -0.736469 0 0 1
-0.195312 -0.882812 -0.738306 0 0 1
-0.195312 -0.875 -0.739146 0 0 1
-0.195312 -0.867188 -0.739578 0 0 1
-0.195312 -0.859375 -0.739699 0 0 1
-0.195312 -0.851562 -0.739762 0 0 1
-0.195312 -0.84375 -0.739688 0 0 1
-0.195312 -0.835938 -0.740104 0 0 1
-0.195312 -0.828125 -0.739154 0 0 1
-0.195312 -0.820312 -0.740231 0 0 1
-0.195312 -0.8125 -0.74 0 0 1
-0.195312 -0.804688 -0.739128 0 0 1
-0.195312 -0.796875 -0.739166 0 0 1
-0.195312 -0.789062 -0.737997 0 0 1
-0.195312 -0.78125 -0.736934 0 0 1
-0.195312 -0.773438 -0.73678 0 0 1
-0.195312 -0.765625 -0.735905 0 0 1
-0.195312 -0.757812 -0.734975 0 0 1
-0.195312 -0.75 -0.735708 0 0 1
-0.195312 -0.742188 -0.734934 0 0 1
-0.195312 -0.734375 -0.73408 0 0 1
-0.195312 -0.726562 -0.733344 0 0 1
-0.195312 -0.71875 -0.732262 0 0 1
-0.195312 -0.710938 -0.731732 0 0 1
-0.195312 -0.703125 -0.730018 0 0 1
-0.195312 -0.695312 -0.729663 0 0 1
-0.195312 -0.6875 -0.729257 0 0 1
-0.195312 -0.679688 -0.72804 0 0 1
-0.195312 -0.671875 -0.726901 0 0 1
-0.195312 -0.664062 -0.72611 0 0 1
-0.195312 -0.65625 -0.725828 0 0 1
-0.195312 -0.648438 -0.724805 0 0 1
-0.195312 -0.640625 -0.724147 0 0 1
-0.195312 -0.632812 -0.723539 0 0 1
-0.195312 -0.625 -0.72333 0 0 1
-0.195312 -0.617188 -0.723515 0 0 1
-0.195312 -0.609375 -0.723716 0 0 1
-0.195312 -0.601562 -0.724144 0 0 1
-0.195312 -0.59375 -0.724821 0 0 1
-0.195312 -0.585938 -0.724651 0 0 1
-0.195312 -0.578125 -0.724944 0 0 1
-0.195312 -0.570312 -0.72577 0 0 1
-0.195312 -0.5625 -0.726968 0 0 1
-0.195312 -0.554688 -0.727747 0 0 1
-0.195312 -0.546875 -0.728546 0 0 1
-0.195312 -0.539062 -0.729044 0 0 1
-0.195312 -0.53125 -0.728785 0 0 1
-0.195312 -0.523438 -0.72824 0 0 1
-0.195312 -0.515625 -0.727654 0 0 1
-0.195312 -0.507812 -0.725851 0 0 1
-0.195312 -0.5 -0.724233 0 0 1
-0.195312 -0.492188 -0.722975 0 0 1
-0.195312 -0.484375 -0.721655 0 0 1
-0.195312 -0.476562 -0.720257 0 0 1
-0.195312 -0.46875 -0.717381 0 0 1
-0.195312 -0.460938 -0.714685 0 0 1
-0.195312 -0.453125 -0.713133 0 0 1
-0.195312 -0.445312 -0.711105 0 0 1
-0.195312 -0.4375 -0.707975 0 0 1
-0.195312 -0.429688 -0.703072 0 0 1
-0.195312 -0.421875 -0.697657 0 0 1
-0.195312 -0.414062 -0.692621 0 0 1
-0.195312 -0.40625 -0.688956 0 0 1
-0.195312 -0.398438 -0.686005 0 0 1
-0.195312 -0.390625 -0.68351 0 0 1
-0.195312 -0.382812 -0.680927 0 0 1
-0.195312 -0.375 -0.678433 0 0 1
-0.195312 -0.367188 -0.675755 0 0 1
-0.195312 -0.359375 -0.673523 0 0 1
-0.195312 -0.351562 -0.671126 0 0 1
-0.195312 -0.34375 -0.669117 0 0 1
-0.195312 -0.335938 -0.667043 0 0 1
-0.195312 -0.328125 -0.665195 0 0 1
-0.195312 -0.320312 -0.663116 0 0 1
-0.195312 -0.3125 -0.661485 0 0 1
-0.195312 -0.304688 -0.659694 0 0 1
-0.195312 -0.296875 -0.657712 0 0 1
-0.195312 -0.289062 -0.655929 0 0 1
-0.195312 -0.28125 -0.653899 0 0 1
-0.195312 -0.273438 -0.651934 0 0 1
-0.195312 -0.265625 -0.650182 0 0 1
-0.195312 -0.257812 -0.648415 0 0 1
-0.195312 -0.25 -0.646443 0 0 1
-0.195312 -0.242188 -0.644464 0 0 1
-0.195312 -0.234375 -0.642192 0 0 1
-0.195312 -0.226562 -0.640432 0 0 1
-0.195312 -0.21875 -0.638794 0 0 1
-0.195312 -0.210938 -0.636734 0 0 1
-0.195312 -0.203125 -0.635093 0 0 1
-0.195312 -0.195312 -0.633389 0 0 1
-0.195312 -0.1875 -0.63169 0 0 1
-0.195312 -0.179688 -0.629929 0 0 1
-0.195312 -0.171875 -0.62821 0 0 1
-0.195312 -0.164062 -0.626703 0 0 1
-0.195312 -0.15625 -0.625295 0 0 1
-0.195312 -0.148438 -0.62389 0 0 1
-0.195312 -0.140625 -0.622623 0 0 1
-0.195312 -0.132812 -0.621561 0 0 1
-0.195312 -0.125 -0.620363 0 0 1
-0.195312 -0.117188 -0.619423 0 0 1
-0.195312 -0.109375 -0.618711 0 0 1
-0.195312 -0.101562 -0.618109 0 0 1
-0.195312 -0.09375 -0.618031 0 0 1
-0.195312 -0.0859375 -0.614216 0 0 1
-0.195312 -0.078125 -0.60362 0 0 1
-0.195312 -0.0703125 -0.604596 0 0 1
-0.195312 -0.0625 -0.601493 0 0 1
-0.195312 -0.0546875 -0.605158 0 0 1
-0.195312 -0.046875 -0.608689 0 0 1
-0.195312 -0.0390625 -0.601844 0 0 1
-0.195312 -0.03125 -0.603559 0 0 1
-0.195312 -0.0234375 -0.602357 0 0 1
-0.195312 -0.015625 -0.600838 0 0 1
-0.195312 -0.0078125 -0.598583 0 0 1
-0.195312 0 -0.597862 0 0 1
-0.195312 0.0078125 -0.594615 0 0 1
-0.195312 0.015625 -0.5976 0 0 1
-0.195312 0.0234375 -0.597722 0 0 1
-0.195312 0.03125 -0.593276 0 0 1
-0.195312 0.0390625 -0.588973 0 0 1
-0.195312 0.046875 -0.585605 0 0 1
-0.195312 0.0546875 -0.583174 0 0 1
-0.195312 0.0625 -0.580834 0 0 1
-0.195312 0.0703125 -0.579063 0 0 1
-0.195312 0.078125 -0.577238 0 0 1
-0.195312 0.0859375 -0.576043 0 0 1
-0.195312 0.09375 -0.575552 0 0 1
-0.195312 0.101562 -0.575338 0 0 1
-0.195312 0.109375 -0.575372 0 0 1
-0.195312 0.117188 -0.575791 0 0 1
-0.195312 0.125 -0.577189 0 0 1
-0.195312 0.132812 -0.578679 0 0 1
-0.195312 0.140625 -0.579826 0 0 1
-0.195312 0.148438 -0.580496 0 0 1
-0.195312 0.15625 -0.580145 0 0 1
-0.195312 0.164062 -0.579506 0 0 1
-0.195312 0.171875 -0.578697 0 0 1
-0.195312 0.179688 -0.578048 0 0 1
-0.195312 0.1875 -0.576948 0 0 1
-0.195312 0.195312 -0.574817 0 0 1
-0.195312 0.203125 -0.573394 0 0 1
-0.195312 0.210938 -0.571982 0 0 1
-0.195312 0.21875 -0.571082 0 0 1
-0.195312 0.226562 -0.570687 0 0 1
-0.195312 0.234375 -0.570802 0 0 1
-0.195312 0.242188 -0.57039 0 0 1
-0.195312 0.25 -0.569285 0 0 1
-0.195312 0.257812 -0.56842 0 0 1
-0.195312 0.265625 -0.567782 0 0 1
-0.195312 0.273438 -0.567085 0 0 1
-0.195312 0.28125 -0.565998 0 0 1
-0.195312 0.289062 -0.564366 0 0 1
-0.195312 0.296875 -0.562532 0 0 1
-0.195312 0.304688 -0.560354 0 0 1
-0.195312 0.3125 -0.557589 0 0 1
-0.195312 0.320312 -0.554865 0 0 1
-0.195312 0.328125 -0.552445 0 0 1
-0.195312 0.335938 -0.550991 0 0 1
-0.195312 0.34375 -0.549757 0 0 1
-0.195312 0.351562 -0.549614 0 0 1
-0.195312 0.359375 -0.549616 0 0 1
-0.195312 0.367188 -0.54963 0 0 1
-0.195312 0.375 -0.550385 0 0 1
-0.195312 0.382812 -0.551651 0 0 1
-0.195312 0.390625 -0.553501 0 0 1
-0.195312 0.398438 -0.555791 0 0 1
-0.195312 0.40625 -0.558358 0 0 1
-0.195312 0.414062 -0.560804 0 0 1
-0.195312 0.421875 -0.563504 0 0 1
-0.195312 0.429688 -0.566428 0 0 1
-0.195312 0.4375 -0.569645 0 0 1
-0.195312 0.445312 -0.572982 0 0 1
-0.195312 0.453125 -0.576164 0 0 1
-0.195312 0.460938 -0.578934 0 0 1
-0.195312 0.46875 -0.580647 0 0 1
-0.195312 0.476562 -0.581276 0 0 1
-0.195312 0.484375 -0.581956 0 0 1
-0.195312 0.492188 -0.586411 0 0 1
-0.195312 0.5 -0.596333 0 0 1
-0.195312 0.507812 -0.605025 0 0 1
-0.195312 0.515625 -0.608355 0 0 1
-0.195312 0.523438 -0.609627 0 0 1
-0.195312 0.53125 -0.611085 0 0 1
-0.195312 0.539062 -0.612679 0 0 1
-0.195312 0.546875 -0.615424 0 0 1
-0.195312 0.554688 -0.620685 0 0 1
-0.195312 0.5625 -0.631658 0 0 1
-0.195312 0.59375 -0.583391 0 0 1
-0.195312 0.601562 -0.576959 0 0 1
-0.195312 0.609375 -0.531966 0 0 1
-0.195312 0.617188 -0.522693 0 0 1
-0.195312 0.625 -0.515157 0 0 1
-0.195312 0.632812 -0.507285 0 0 1
-0.195312 0.640625 -0.500932 0 0 1
-0.195312 0.648438 -0.497211 0 0 1
-0.195312 0.65625 -0.49623 0 0 1
-0.195312 0.664062 -0.496799 0 0 1
-0.195312 0.671875 -0.498065 0 0 1
-0.195312 0.679688 -0.49814 0 0 1
-0.195312 0.6875 -0.493487 0 0 1
-0.195312 0.695312 -0.492304 0 0 1
-0.195312 0.703125 -0.493878 0 0 1
-0.195312 0.710938 -0.494054 0 0 1
-0.195312 0.71875 -0.494822 0 0 1
-0.195312 0.726562 -0.493182 0 0 1
-0.195312 0.734375 -0.494256 0 0 1
-0.195312 0.742188 -0.498736 0 0 1
-0.195312 0.75 -0.501795 0 0 1
-0.195312 0.757812 -0.505909 0 0 1
-0.195312 0.765625 -0.510401 0 0 1
-0.195312 0.773438 -0.515607 0 0 1
-0.195312 0.78125 -0.526296 0 0 1
-0.195312 0.789062 -0.539954 0 0 1
-0.195312 0.796875 -0.556917 0 0 1
-0.1875 -0.945312 -0.764712 0 0 1
-0.1875 -0.9375 -0.734282 0 0 1
-0.1875 -0.929688 -0.727198 0 0 1
-0.1875 -0.921875 -0.727595 0 0 1
-0.1875 -0.914062 -0.728498 0 0 1
-0.1875 -0.90625 -0.730378 0 0 1
-0.1875 -0.898438 -0.731924 0 0 1
-0.1875 -0.890625 -0.733817 0 0 1
-0.1875 -0.882812 -0.735808 0 0 1
-0.1875 -0.875 -0.736613 0 0 1
-0.1875 -0.867188 -0.736582 0 0 1
-0.1875 -0.859375 -0.736614 0 0 1
-0.1875 -0.851562 -0.736207 0 0 1
-0.1875 -0.84375 -0.736362 0 0 1
-0.1875 -0.835938 -0.736319 0 0 1
-0.1875 -0.828125 -0.736227 0 0 1
-0.1875 -0.820312 -0.736121 0 0 1
-0.1875 -0.8125 -0.735643 0 0 1
-0.1875 -0.804688 -0.735795 0 0 1
-0.1875 -0.796875 -0.735411 0 0 1
-0.1875 -0.789062 -0.734809 0 0 1
-0.1875 -0.78125 -0.734311 0 0 1
-0.1875 -0.773438 -0.734518 0 0 1
-0.1875 -0.765625 -0.733 0 0 1
-0.1875 -0.757812 -0.732512 0 0 1
-0.1875 -0.75 -0.731503 0 0 1
-0.1875 -0.742188 -0.731232 0 0 1
-0.1875 -0.734375 -0.731241 0 0 1
-0.1875 -0.726562 -0.730295 0 0 1
-0.1875 -0.71875 -0.729745 0 0 1
-0.1875 -0.710938 -0.729293 0 0 1
-0.1875 -0.703125 -0.728619 0 0 1
-0.1875 -0.695312 -0.72877 0 0 1
-0.1875 -0.6875 -0.72805 0 0 1
-0.1875 -0.679688 -0.727423 0 0 1
-0.1875 -0.671875 -0.726069 0 0 1
-0.1875 -0.664062 -0.725507 0 0 1
-0.1875 -0.65625 -0.725675 0 0 1
-0.1875 -0.648438 -0.724681 0 0 1
-0.1875 -0.640625 -0.724476 0 0 1
-0.1875 -0.632812 -0.724223 0 0 1
-0.1875 -0.625 -0.723922 0 0 1
-0.1875 -0.617188 -0.724395 0 0 1
-0.1875 -0.609375 -0.724781 0 0 1
-0.1875 -0.601562 -0.724887 0 0 1
-0.1875 -0.59375 -0.724947 0 0 1
-0.1875 -0.585938 -0.726161 0 0 1
-0.1875 -0.578125 -0.726961 0 0 1
-0.1875 -0.570312 -0.727611 0 0 1
-0.1875 -0.5625 -0.728622 0 0 1
-0.1875 -0.554688 -0.729263 0 0 1
-0.1875 -0.546875 -0.730234 0 0 1
-0.1875 -0.539062 -0.73022 0 0 1
-0.1875 -0.53125 -0.729557 0 0 1
-0.1875 -0.523438 -0.728687 0 0 1
-0.1875 -0.515625 -0.727414 0 0 1
-0.1875 -0.507812 -0.725825 0 0 1
-0.1875 -0.5 -0.724809 0 0 1
-0.1875 -0.492188 -0.723442 0 0 1
-0.1875 -0.484375 -0.722056 0 0 1
-0.1875 -0.476562 -0.719496 0 0 1
-0.1875 -0.46875 -0.714823 0 0 1
-0.1875 -0.460938 -0.711045 0 0 1
-0.1875 -0.453125 -0.708138 0 0 1
-0.1875 -0.445312 -0.705968 0 0 1
-0.1875 -0.4375 -0.70321 0 0 1
-0.1875 -0.429688 -0.69985 0 0 1
-0.1875 -0.421875 -0.695838 0 0 1
-0.1875 -0.414062 -0.691582 0 0 1
-0.1875 -0.40625 -0.687983 0 0 1
-0.1875 -0.398438 -0.684624 0 0 1
-0.1875 -0.390625 -0.682116 0 0 1
-0.1875 -0.382812 -0.679843 0 0 1
-0.1875 -0.375 -0.677267 0 0 1
-0.1875 -0.367188 -0.674768 0 0 1
-0.1875 -0.359375 -0.672348 0 0 1
-0.1875 -0.351562 -0.669976 0 0 1
-0.1875 -0.34375 -0.667903 0 0 1
-0.1875 -0.335938 -0.665529 0 0 1
-0.1875 -0.328125 -0.663854 0 0 1
-0.1875 -0.320312 -0.661555 0 0 1
-0.1875 -0.3125 -0.659973 0 0 1
-0.1875 -0.304688 -0.658052 0 0 1
-0.1875 -0.296875 -0.656233 0 0 1
-0.1875 -0.289062 -0.654176 0 0 1
-0.1875 -0.28125 -0.652252 0 0 1
-0.1875 -0.273438 -0.650189 0 0 1
-0.1875 -0.265625 -0.648465 0 0 1
-0.1875 -0.257812 -0.646545 0 0 1
-0.1875 -0.25 -0.64469 0 0 1
-0.1875 -0.242188 -0.642744 0 0 1
-0.1875 -0.234375 -0.640934 0 0 1
-0.1875 -0.226562 -0.638883 0 0 1
-0.1875 -0.21875 -0.637114 0 0 1
-0.1875 -0.210938 -0.635403 0 0 1
-0.1875 -0.203125 -0.633923 0 0 1
-0.1875 -0.195312 -0.632325 0 0 1
-0.1875 -0.1875 -0.630941 0 0 1
-0.1875 -0.179688 -0.629374 0 0 1
-0.1875 -0.171875 -0.627964 0 0 1
-0.1875 -0.164062 -0.626595 0 0 1
-0.1875 -0.15625 -0.625315 0 0 1
-0.1875 -0.148438 -0.62419 0 0 1
-0.1875 -0.140625 -0.62308 0 0 1
-0.1875 -0.132812 -0.62207 0 0 1
-0.1875 -0.125 -0.621198 0 0 1
-0.1875 -0.117188 -0.620473 0 0 1
-0.1875 -0.109375 -0.619729 0 0 1
-0.1875 -0.101562 -0.619001 0 0 1
-0.1875 -0.09375 -0.61876 0 0 1
-0.1875 -0.0859375 -0.61834 0 0 1
-0.1875 -0.078125 -0.613114 0 0 1
-0.1875 -0.0703125 -0.609631 0 0 1
-0.1875 -0.0625 -0.606004 0 0 1
-0.1875 -0.0546875 -0.609272 0 0 1
-0.1875 -0.046875 -0.611609 0 0 1
-0.1875 -0.0390625 -0.606529 0 0 1
-0.1875 -0.03125 -0.608 0 0 1
-0.1875 -0.0234375 -0.606597 0 0 1
-0.1875 -0.015625 -0.604809 0 0 1
-0.1875 -0.0078125 -0.601965 0 0 1
-0.1875 0 -0.601473 0 0 1
-0.1875 0.0078125 -0.598456 0 0 1
-0.1875 0.015625 -0.601174 0 0 1
-0.1875 0.0234375 -0.603246 0 0 1
-0.1875 0.03125 -0.600634 0 0 1
-0.1875 0.0390625 -0.596331 0 0 1
-0.1875 0.046875 -0.592077 0 0 1
-0.1875 0.0546875 -0.589474 0 0 1
-0.1875 0.0625 -0.587207 0 0 1
-0.1875 0.0703125 -0.585593 0 0 1
-0.1875 0.078125 -0.583809 0 0 1
-0.1875 0.0859375 -0.582828 0 0 1
-0.1875 0.09375 -0.582366 0 0 1
-0.1875 0.101562 -0.582016 0 0 1
-0.1875 0.109375 -0.582166 0 0 1
-0.1875 0.117188 -0.58288 0 0 1
-0.1875 0.125 -0.584119 0 0 1
-0.1875 0.132812 -0.585514 0 0 1
-0.1875 0.140625 -0.586599 0 0 1
-0.1875 0.148438 -0.587571 0 0 1
-0.1875 0.15625 -0.587494 0 0 1
-0.1875 0.164062 -0.587109 0 0 1
-0.1875 0.171875 -0.586531 0 0 1
-0.1875 0.179688 -0.585843 0 0 1
-0.1875 0.1875 -0.584168 0 0 1
-0.1875 0.195312 -0.58205 0 0 1
-0.1875 0.203125 -0.580492 0 0 1
-0.1875 0.210938 -0.579922 0 0 1
-0.1875 0.21875 -0.57953 0 0 1
-0.1875 0.226562 -0.579679 0 0 1
-0.1875 0.234375 -0.579993 0 0 1
-0.1875 0.242188 -0.578519 0 0 1
-0.1875 0.25 -0.576525 0 0 1
-0.1875 0.257812 -0.574828 0 0 1
-0.1875 0.265625 -0.573699 0 0 1
-0.1875 0.273438 -0.572805 0 0 1
-0.1875 0.28125 -0.571528 0 0 1
-0.1875 0.289062 -0.569265 0 0 1
-0.1875 0.296875 -0.56676 0 0 1
-0.1875 0.304688 -0.563942 0 0 1
-0.1875 0.3125 -0.560823 0 0 1
-0.1875 0.320312 -0.557783 0 0 1
-0.1875 0.328125 -0.555595 0 0 1
-0.1875 0.335938 -0.5539 0 0 1
-0.1875 0.34375 -0.55267 0 0 1
-0.1875 0.351562 -0.552278 0 0 1
-0.1875 0.359375 -0.552132 0 0 1
-0.1875 0.367188 -0.552258 0 0 1
-0.1875 0.375 -0.552923 0 0 1
-0.1875 0.382812 -0.554179 0 0 1
-0.1875 0.390625 -0.556201 0 0 1
-0.1875 0.398438 -0.55828 0 0 1
-0.1875 0.40625 -0.560674 0 0 1
-0.1875 0.414062 -0.563149 0 0 1
-0.1875 0.421875 -0.56583 0 0 1
-0.1875 0.429688 -0.568923 0 0 1
-0.1875 0.4375 -0.57203 0 0 1
-0.1875 0.445312 -0.575402 0 0 1
-0.1875 0.453125 -0.578753 0 0 1
-0.1875 0.460938 -0.581621 0 0 1
-0.1875 0.46875 -0.583547 0 0 1
-0.1875 0.476562 -0.584451 0 0 1
-0.1875 0.484375 -0.585123 0 0 1
-0.1875 0.492188 -0.588346 0 0 1
-0.1875 0.5 -0.598819 0 0 1
-0.1875 0.507812 -0.60842 0 0 1
-0.1875 0.515625 -0.614243 0 0 1
-0.1875 0.523438 -0.618096 0 0 1
-0.1875 0.53125 -0.62264 0 0 1
-0.1875 0.539062 -0.626558 0 0 1
-0.1875 0.546875 -0.630882 0 0 1
-0.1875 0.554688 -0.637564 0 0 1
-0.1875 0.632812 -0.532448 0 0 1
-0.1875 0.640625 -0.523773 0 0 1
-0.1875 0.648438 -0.513146 0 0 1
-0.1875 0.65625 -0.508453 0 0 1
-0.1875 0.664062 -0.507585 0 0 1
-0.1875 0.671875 -0.508213 0 0 1
-0.1875 0.679688 -0.508479 0 0 1
-0.1875 0.6875 -0.508535 0 0 1
-0.1875 0.695312 -0.507726 0 0 1
-0.1875 0.703125 -0.50595 0 0 1
-0.1875 0.710938 -0.505804 0 0 1
-0.1875 0.71875 -0.505164 0 0 1
-0.1875 0.726562 -0.503796 0 0 1
-0.1875 0.734375 -0.506206 0 0 1
-0.1875 0.742188 -0.509193 0 0 1
-0.1875 0.75 -0.513445 0 0 1
-0.1875 0.757812 -0.516957 0 0 1
-0.1875 0.765625 -0.522167 0 0 1
-0.1875 0.773438 -0.531387 0 0 1
-0.1875 0.78125 -0.540631 0 0 1
-0.1875 0.789062 -0.554917 0 0 1
-0.179688 -0.945312 -0.753569 0 0 1
-0.179688 -0.9375 -0.730875 0 0 1
-0.179688 -0.929688 -0.724483 0 0 1
-0.179688 -0.921875 -0.725984 0 0 1
-0.179688 -0.914062 -0.727088 0 0 1
-0.179688 -0.90625 -0.728117 0 0 1
-0.179688 -0.898438 -0.728879 0 0 1
-0.179688 -0.890625 -0.730118 0 0 1
-0.179688 -0.882812 -0.731076 0 0 1
-0.179688 -0.875 -0.731108 0 0 1
-0.179688 -0.867188 -0.731337 0 0 1
-0.179688 -0.859375 -0.731742 0 0 1
-0.179688 -0.851562 -0.731374 0 0 1
-0.179688 -0.84375 -0.73202 0 0 1
-0.179688 -0.835938 -0.732432 0 0 1
-0.179688 -0.828125 -0.732418 0 0 1
-0.179688 -0.820312 -0.732168 0 0 1
-0.179688 -0.8125 -0.732536 0 0 1
-0.179688 -0.804688 -0.733261 0 0 1
-0.179688 -0.796875 -0.732842 0 0 1
-0.179688 -0.789062 -0.73206 0 0 1
-0.179688 -0.78125 -0.73188 0 0 1
-0.179688 -0.773438 -0.731623 0 0 1
-0.179688 -0.765625 -0.731067 0 0 1
-0.179688 -0.757812 -0.730856 0 0 1
-0.179688 -0.75 -0.730303 0 0 1
-0.179688 -0.742188 -0.730156 0 0 1
-0.179688 -0.734375 -0.729847 0 0 1
-0.179688 -0.726562 -0.72929 0 0 1
-0.179688 -0.71875 -0.728833 0 0 1
-0.179688 -0.710938 -0.728267 0 0 1
-0.179688 -0.703125 -0.728341 0 0 1
-0.179688 -0.695312 -0.72842 0 0 1
-0.179688 -0.6875 -0.727692 0 0 1
-0.179688 -0.679688 -0.727569 0 0 1
-0.179688 -0.671875 -0.726717 0 0 1
-0.179688 -0.664062 -0.726311 0 0 1
-0.179688 -0.65625 -0.726438 0 0 1
-0.179688 -0.648438 -0.725942 0 0 1
-0.179688 -0.640625 -0.726075 0 0 1
-0.179688 -0.632812 -0.725901 0 0 1
-0.179688 -0.625 -0.725817 0 0 1
-0.179688 -0.617188 -0.726519 0 0 1
-0.179688 -0.609375 -0.727551 0 0 1
-0.179688 -0.601562 -0.72761 0 0 1
-0.179688 -0.59375 -0.727308 0 0 1
-0.179688 -0.585938 -0.729466 0 0 1
-0.179688 -0.578125 -0.729928 0 0 1
-0.179688 -0.570312 -0.72997 0 0 1
-0.179688 -0.5625 -0.731121 0 0 1
-0.179688 -0.554688 -0.731215 0 0 1
-0.179688 -0.546875 -0.731807 0 0 1
-0.179688 -0.539062 -0.731346 0 0 1
-0.179688 -0.53125 -0.730402 0 0 1
-0.179688 -0.523438 -0.729237 0 0 1
-0.179688 -0.515625 -0.727848 0 0 1
-0.179688 -0.507812 -0.726996 0 0 1
-0.179688 -0.5 -0.726164 0 0 1
-0.179688 -0.492188 -0.72486 0 0 1
-0.179688 -0.484375 -0.72215 0 0 1
-0.179688 -0.476562 -0.718138 0 0 1
-0.179688 -0.46875 -0.712128 0 0 1
-0.179688 -0.460938 -0.707708 0 0 1
-0.179688 -0.453125 -0.704618 0 0 1
-0.179688 -0.445312 -0.701894 0 0 1
-0.179688 -0.4375 -0.699398 0 0 1
-0.179688 -0.429688 -0.696718 0 0 1
-0.179688 -0.421875 -0.694672 0 0 1
-0.179688 -0.414062 -0.69129 0 0 1
-0.179688 -0.40625 -0.687935 0 0 1
-0.179688 -0.398438 -0.68462 0 0 1
-0.179688 -0.390625 -0.682338 0 0 1
-0.179688 -0.382812 -0.679925 0 0 1
-0.179688 -0.375 -0.677637 0 0 1
-0.179688 -0.367188 -0.67522 0 0 1
-0.179688 -0.359375 -0.672666 0 0 1
-0.179688 -0.351562 -0.670018 0 0 1
-0.179688 -0.34375 -0.667744 0 0 1
-0.179688 -0.335938 -0.665586 0 0 1
-0.179688 -0.328125 -0.663421 0 0 1
-0.179688 -0.320312 -0.661189 0 0 1
-0.179688 -0.3125 -0.659363 0 0 1
-0.179688 -0.304688 -0.657574 0 0 1
-0.179688 -0.296875 -0.655519 0 0 1
-0.179688 -0.289062 -0.653196 0 0 1
-0.179688 -0.28125 -0.651422 0 0 1
-0.179688 -0.273438 -0.649471 0 0 1
-0.179688 -0.265625 -0.647672 0 0 1
-0.179688 -0.257812 -0.645862 0 0 1
-0.179688 -0.25 -0.644186 0 0 1
-0.179688 -0.242188 -0.642064 0 0 1
-0.179688 -0.234375 -0.639978 0 0 1
-0.179688 -0.226562 -0.63824 0 0 1
-0.179688 -0.21875 -0.636399 0 0 1
-0.179688 -0.210938 -0.634737 0 0 1
-0.179688 -0.203125 -0.633221 0 0 1
-0.179688 -0.195312 -0.631818 0 0 1
-0.179688 -0.1875 -0.630605 0 0 1
-0.179688 -0.179688 -0.629381 0 0 1
-0.179688 -0.171875 -0.627888 0 0 1
-0.179688 -0.164062 -0.626678 0 0 1
-0.179688 -0.15625 -0.625617 0 0 1
-0.179688 -0.148438 -0.62454 0 0 1
-0.179688 -0.140625 -0.623686 0 0 1
-0.179688 -0.132812 -0.622872 0 0 1
-0.179688 -0.125 -0.622228 0 0 1
-0.179688 -0.117188 -0.621674 0 0 1
-0.179688 -0.109375 -0.621157 0 0 1
-0.179688 -0.101562 -0.620593 0 0 1
-0.179688 -0.09375 -0.620217 0 0 1
-0.179688 -0.0859375 -0.620157 0 0 1
-0.179688 -0.078125 -0.618552 0 0 1
-0.179688 -0.0703125 -0.614455 0 0 1
-0.179688 -0.0625 -0.611731 0 0 1
-0.179688 -0.0546875 -0.613529 0 0 1
-0.179688 -0.046875 -0.614706 0 0 1
-0.179688 -0.0390625 -0.609787 0 0 1
-0.179688 -0.03125 -0.612431 0 0 1
-0.179688 -0.0234375 -0.610421 0 0 1
-0.179688 -0.015625 -0.608814 0 0 1
-0.179688 -0.0078125 -0.60618 0 0 1
-0.179688 0 -0.606413 0 0 1
-0.179688 0.0078125 -0.604819 0 0 1
-0.179688 0.015625 -0.604803 0 0 1
-0.179688 0.0234375 -0.607503 0 0 1
-0.179688 0.03125 -0.606408 0 0 1
-0.179688 0.0390625 -0.603477 0 0 1
-0.179688 0.046875 -0.599918 0 0 1
-0.179688 0.0546875 -0.596506 0 0 1
-0.179688 0.0625 -0.594476 0 0 1
-0.179688 0.0703125 -0.592564 0 0 1
-0.179688 0.078125 -0.590955 0 0 1
-0.179688 0.0859375 -0.589866 0 0 1
-0.179688 0.09375 -0.588891 0 0 1
-0.179688 0.101562 -0.588274 0 0 1
-0.179688 0.109375 -0.588077 0 0 1
-0.179688 0.117188 -0.588599 0 0 1
-0.179688 0.125 -0.589645 0 0 1
-0.179688 0.132812 -0.590762 0 0 1
-0.179688 0.140625 -0.591655 0 0 1
-0.179688 0.148438 -0.592603 0 0 1
-0.179688 0.15625 -0.592843 0 0 1
-0.179688 0.164062 -0.592991 0 0 1
-0.179688 0.171875 -0.592971 0 0 1
-0.179688 0.179688 -0.592448 0 0 1
-0.179688 0.1875 -0.591129 0 0 1
-0.179688 0.195312 -0.589201 0 0 1
-0.179688 0.203125 -0.587906 0 0 1
-0.179688 0.210938 -0.58788 0 0 1
-0.179688 0.21875 -0.588856 0 0 1
-0.179688 0.226562 -0.589092 0 0 1
-0.179688 0.234375 -0.588704 0 0 1
-0.179688 0.242188 -0.586982 0 0 1
-0.179688 0.25 -0.584434 0 0 1
-0.179688 0.257812 -0.582399 0 0 1
-0.179688 0.265625 -0.580893 0 0 1
-0.179688 0.273438 -0.579669 0 0 1
-0.179688 0.28125 -0.578078 0 0 1
-0.179688 0.289062 -0.575333 0 0 1
-0.179688 0.296875 -0.572111 0 0 1
-0.179688 0.304688 -0.56848 0 0 1
-0.179688 0.3125 -0.565264 0 0 1
-0.179688 0.320312 -0.562152 0 0 1
-0.179688 0.328125 -0.559402 0 0 1
-0.179688 0.335938 -0.55742 0 0 1
-0.179688 0.34375 -0.556215 0 0 1
-0.179688 0.351562 -0.555783 0 0 1
-0.179688 0.359375 -0.555703 0 0 1
-0.179688 0.367188 -0.555688 0 0 1
-0.179688 0.375 -0.556264 0 0 1
-0.179688 0.382812 -0.55738 0 0 1
-0.179688 0.390625 -0.559134 0 0 1
-0.179688 0.398438 -0.561142 0 0 1
-0.179688 0.40625 -0.563342 0 0 1
-0.179688 0.414062 -0.565859 0 0 1
-0.179688 0.421875 -0.568602 0 0 1
-0.179688 0.429688 -0.571795 0 0 1
-0.179688 0.4375 -0.574902 0 0 1
-0.179688 0.445312 -0.578168 0 0 1
-0.179688 0.453125 -0.581567 0 0 1
-0.179688 0.460938 -0.584414 0 0 1
-0.179688 0.46875 -0.586617 0 0 1
-0.179688 0.476562 -0.588117 0 0 1
-0.179688 0.484375 -0.588861 0 0 1
-0.179688 0.492188 -0.591385 0 0 1
-0.179688 0.5 -0.601068 0 0 1
-0.179688 0.507812 -0.613069 0 0 1
-0.179688 0.515625 -0.621487 0 0 1
-0.179688 0.523438 -0.627102 0 0 1
-0.179688 0.53125 -0.631156 0 0 1
-0.179688 0.539062 -0.634824 0 0 1
-0.179688 0.546875 -0.639675 0 0 1
-0.179688 0.554688 -0.651578 0 0 1
-0.179688 0.648438 -0.558374 0 0 1
-0.179688 0.65625 -0.555092 0 0 1
-0.179688 0.664062 -0.535219 0 0 1
-0.179688 0.671875 -0.528609 0 0 1
-0.179688 0.679688 -0.528461 0 0 1
-0.179688 0.6875 -0.529966 0 0 1
-0.179688 0.695312 -0.527892 0 0 1
-0.179688 0.703125 -0.525928 0 0 1
-0.179688 0.710938 -0.520709 0 0 1
-0.179688 0.71875 -0.518046 0 0 1
-0.179688 0.726562 -0.518946 0 0 1
-0.179688 0.734375 -0.519958 0 0 1
-0.179688 0.742188 -0.523002 0 0 1
-0.179688 0.75 -0.527375 0 0 1
-0.179688 0.757812 -0.532607 0 0 1
-0.179688 0.765625 -0.539061 0 0 1
-0.179688 0.773438 -0.548458 0 0 1
-0.171875 -0.945312 -0.742194 0 0 1
-0.171875 -0.9375 -0.727747 0 0 1
-0.171875 -0.929688 -0.722482 0 0 1
-0.171875 -0.921875 -0.724527 0 0 1
-0.171875 -0.914062 -0.725544 0 0 1
-0.171875 -0.90625 -0.725885 0 0 1
-0.171875 -0.898438 -0.725122 0 0 1
-0.171875 -0.890625 -0.725165 0 0 1
-0.171875 -0.882812 -0.724393 0 0 1
-0.171875 -0.875 -0.724661 0 0 1
-0.171875 -0.867188 -0.724113 0 0 1
-0.171875 -0.859375 -0.724379 0 0 1
-0.171875 -0.851562 -0.72523 0 0 1
-0.171875 -0.84375 -0.726417 0 0 1
-0.171875 -0.835938 -0.728329 0 0 1
-0.171875 -0.828125 -0.728433 0 0 1
-0.171875 -0.820312 -0.729334 0 0 1
-0.171875 -0.8125 -0.729881 0 0 1
-0.171875 -0.804688 -0.730576 0 0 1
-0.171875 -0.796875 -0.730933 0 0 1
-0.171875 -0.789062 -0.730627 0 0 1
-0.171875 -0.78125 -0.730427 0 0 1
-0.171875 -0.773438 -0.730323 0 0 1
-0.171875 -0.765625 -0.730619 0 0 1
-0.171875 -0.757812 -0.730215 0 0 1
-0.171875 -0.75 -0.73042 0 0 1
-0.171875 -0.742188 -0.730366 0 0 1
-0.171875 -0.734375 -0.73033 0 0 1
-0.171875 -0.726562 -0.730283 0 0 1
-0.171875 -0.71875 -0.729953 0 0 1
-0.171875 -0.710938 -0.729047 0 0 1
-0.171875 -0.703125 -0.729446 0 0 1
-0.171875 -0.695312 -0.729477 0 0 1
-0.171875 -0.6875 -0.729194 0 0 1
-0.171875 -0.679688 -0.729386 0 0 1
-0.171875 -0.671875 -0.728658 0 0 1
-0.171875 -0.664062 -0.729039 0 0 1
-0.171875 -0.65625 -0.729095 0 0 1
-0.171875 -0.648438 -0.729353 0 0 1
-0.171875 -0.640625 -0.729566 0 0 1
-0.171875 -0.632812 -0.729439 0 0 1
-0.171875 -0.625 -0.729366 0 0 1
-0.171875 -0.617188 -0.730012 0 0 1
-0.171875 -0.609375 -0.730928 0 0 1
-0.171875 -0.601562 -0.73071 0 0 1
-0.171875 -0.59375 -0.731358 0 0 1
-0.171875 -0.585938 -0.732406 0 0 1
-0.171875 -0.578125 -0.732043 0 0 1
-0.171875 -0.570312 -0.732316 0 0 1
-0.171875 -0.5625 -0.733371 0 0 1
-0.171875 -0.554688 -0.732833 0 0 1
-0.171875 -0.546875 -0.733112 0 0 1
-0.171875 -0.539062 -0.732594 0 0 1
-0.171875 -0.53125 -0.731568 0 0 1
-0.171875 -0.523438 -0.730495 0 0 1
-0.171875 -0.515625 -0.729548 0 0 1
-0.171875 -0.507812 -0.728713 0 0 1
-0.171875 -0.5 -0.727812 0 0 1
-0.171875 -0.492188 -0.726729 0 0 1
-0.171875 -0.484375 -0.722808 0 0 1
-0.171875 -0.476562 -0.716893 0 0 1
-0.171875 -0.46875 -0.710353 0 0 1
-0.171875 -0.460938 -0.705488 0 0 1
-0.171875 -0.453125 -0.702096 0 0 1
-0.171875 -0.445312 -0.699808 0 0 1
-0.171875 -0.4375 -0.696757 0 0 1
-0.171875 -0.429688 -0.69493 0 0 1
-0.171875 -0.421875 -0.693773 0 0 1
-0.171875 -0.414062 -0.692324 0 0 1
-0.171875 -0.40625 -0.689645 0 0 1
-0.171875 -0.398438 -0.686417 0 0 1
-0.171875 -0.390625 -0.683802 0 0 1
-0.171875 -0.382812 -0.681653 0 0 1
-0.171875 -0.375 -0.679228 0 0 1
-0.171875 -0.367188 -0.676875 0 0 1
-0.171875 -0.359375 -0.67427 0 0 1
-0.171875 -0.351562 -0.671673 0 0 1
-0.171875 -0.34375 -0.669197 0 0 1
-0.171875 -0.335938 -0.666734 0 0 1
-0.171875 -0.328125 -0.664314 0 0 1
-0.171875 -0.320312 -0.66216 0 0 1
-0.171875 -0.3125 -0.660018 0 0 1
-0.171875 -0.304688 -0.65784 0 0 1
-0.171875 -0.296875 -0.655901 0 0 1
-0.171875 -0.289062 -0.653665 0 0 1
-0.171875 -0.28125 -0.651702 0 0 1
-0.171875 -0.273438 -0.649887 0 0 1
-0.171875 -0.265625 -0.647838 0 0 1
-0.171875 -0.257812 -0.646119 0 0 1
-0.171875 -0.25 -0.644224 0 0 1
-0.171875 -0.242188 -0.642118 0 0 1
-0.171875 -0.234375 -0.640158 0 0 1
-0.171875 -0.226562 -0.638331 0 0 1
-0.171875 -0.21875 -0.636613 0 0 1
-0.171875 -0.210938 -0.635046 0 0 1
-0.171875 -0.203125 -0.63352 0 0 1
-0.171875 -0.195312 -0.632219 0 0 1
-0.171875 -0.1875 -0.630853 0 0 1
-0.171875 -0.179688 -0.629647 0 0 1
-0.171875 -0.171875 -0.62858 0 0 1
-0.171875 -0.164062 -0.627433 0 0 1
-0.171875 -0.15625 -0.626431 0 0 1
-0.171875 -0.148438 -0.625591 0 0 1
-0.171875 -0.140625 -0.624837 0 0 1
-0.171875 -0.132812 -0.624191 0 0 1
-0.171875 -0.125 -0.623659 0 0 1
-0.171875 -0.117188 -0.623223 0 0 1
-0.171875 -0.109375 -0.62288 0 0 1
-0.171875 -0.101562 -0.622493 0 0 1
-0.171875 -0.09375 -0.622207 0 0 1
-0.171875 -0.0859375 -0.622169 0 0 1
-0.171875 -0.078125 -0.622162 0 0 1
-0.171875 -0.0703125 -0.620651 0 0 1
-0.171875 -0.0625 -0.61841 0 0 1
-0.171875 -0.0546875 -0.61841 0 0 1
-0.171875 -0.046875 -0.618333 0 0 1
-0.171875 -0.0390625 -0.614589 0 0 1
-0.171875 -0.03125 -0.616683 0 0 1
-0.171875 -0.0234375 -0.614766 0 0 1
-0.171875 -0.015625 -0.613331 0 0 1
-0.171875 -0.0078125 -0.611099 0 0 1
-0.171875 0 -0.610907 0 0 1
-0.171875 0.0078125 -0.609793 0 0 1
-0.171875 0.015625 -0.607993 0 0 1
-0.171875 0.0234375 -0.610642 0 0 1
-0.171875 0.03125 -0.610155 0 0 1
-0.171875 0.0390625 -0.608656 0 0 1
-0.171875 0.046875 -0.606411 0 0 1
-0.171875 0.0546875 -0.603883 0 0 1
-0.171875 0.0625 -0.601509 0 0 1
-0.171875 0.0703125 -0.599848 0 0 1
-0.171875 0.078125 -0.598287 0 0 1
-0.171875 0.0859375 -0.597087 0 0 1
-0.171875 0.09375 -0.59565 0 0 1
-0.171875 0.101562 -0.59406 0 0 1
-0.171875 0.109375 -0.593175 0 0 1
-0.171875 0.117188 -0.593411 0 0 1
-0.171875 0.125 -0.594476 0 0 1
-0.171875 0.132812 -0.59563 0 0 1
-0.171875 0.140625 -0.596503 0 0 1
-0.171875 0.148438 -0.597413 0 0 1
-0.171875 0.15625 -0.597751 0 0 1
-0.171875 0.164062 -0.598387 0 0 1
-0.171875 0.171875 -0.598814 0 0 1
-0.171875 0.179688 -0.59906 0 0 1
-0.171875 0.1875 -0.598665 0 0 1
-0.171875 0.195312 -0.597467 0 0 1
-0.171875 0.203125 -0.596656 0 0 1
-0.171875 0.210938 -0.597551 0 0 1
-0.171875 0.21875 -0.598882 0 0 1
-0.171875 0.226562 -0.599076 0 0 1
-0.171875 0.234375 -0.597308 0 0 1
-0.171875 0.242188 -0.595208 0 0 1
-0.171875 0.25 -0.593207 0 0 1
-0.171875 0.257812 -0.590891 0 0 1
-0.171875 0.265625 -0.589308 0 0 1
-0.171875 0.273438 -0.587804 0 0 1
-0.171875 0.28125 -0.585732 0 0 1
-0.171875 0.289062 -0.582889 0 0 1
-0.171875 0.296875 -0.578717 0 0 1
-0.171875 0.304688 -0.574624 0 0 1
-0.171875 0.3125 -0.570757 0 0 1
-0.171875 0.320312 -0.567055 0 0 1
-0.171875 0.328125 -0.563973 0 0 1
-0.171875 0.335938 -0.561889 0 0 1
-0.171875 0.34375 -0.560716 0 0 1
-0.171875 0.351562 -0.559924 0 0 1
-0.171875 0.359375 -0.559689 0 0 1
-0.171875 0.367188 -0.559738 0 0 1
-0.171875 0.375 -0.560129 0 0 1
-0.171875 0.382812 -0.561183 0 0 1
-0.171875 0.390625 -0.562678 0 0 1
-0.171875 0.398438 -0.564347 0 0 1
-0.171875 0.40625 -0.566454 0 0 1
-0.171875 0.414062 -0.568932 0 0 1
-0.171875 0.421875 -0.571603 0 0 1
-0.171875 0.429688 -0.574814 0 0 1
-0.171875 0.4375 -0.578037 0 0 1
-0.171875 0.445312 -0.581217 0 0 1
-0.171875 0.453125 -0.584502 0 0 1
-0.171875 0.460938 -0.587618 0 0 1
-0.171875 0.46875 -0.590073 0 0 1
-0.171875 0.476562 -0.592117 0 0 1
-0.171875 0.484375 -0.59322 0 0 1
-0.171875 0.492188 -0.595089 0 0 1
-0.171875 0.5 -0.60373 0 0 1
-0.171875 0.507812 -0.61807 0 0 1
-0.171875 0.515625 -0.628384 0 0 1
-0.171875 0.523438 -0.633515 0 0 1
-0.171875 0.53125 -0.637038 0 0 1
-0.171875 0.539062 -0.640728 0 0 1
-0.171875 0.546875 -0.647131 0 0 1
-0.171875 0.648438 -0.563846 0 0 1
-0.171875 0.65625 -0.564676 0 0 1
-0.171875 0.664062 -0.569979 0 0 1
-0.171875 0.671875 -0.576806 0 0 1
-0.171875 0.679688 -0.576809 0 0 1
-0.171875 0.6875 -0.561552 0 0 1
-0.171875 0.695312 -0.560952 0 0 1
-0.171875 0.703125 -0.55039 0 0 1
-0.171875 0.710938 -0.543995 0 0 1
-0.171875 0.71875 -0.541881 0 0 1
-0.171875 0.726562 -0.541053 0 0 1
-0.171875 0.734375 -0.540184 0 0 1
-0.171875 0.742188 -0.545327 0 0 1
-0.171875 0.75 -0.545036 0 0 1
-0.171875 0.757812 -0.557234 0 0 1
-0.164062 -0.945312 -0.731108 0 0 1
-0.164062 -0.9375 -0.721368 0 0 1
-0.164062 -0.929688 -0.721526 0 0 1
-0.164062 -0.921875 -0.722752 0 0 1
-0.164062 -0.914062 -0.723169 0 0 1
-0.164062 -0.90625 -0.723087 0 0 1
-0.164062 -0.898438 -0.721917 0 0 1
-0.164062 -0.890625 -0.720777 0 0 1
-0.164062 -0.882812 -0.71967 0 0 1
-0.164062 -0.875 -0.718875 0 0 1
-0.164062 -0.867188 -0.718293 0 0 1
-0.164062 -0.859375 -0.717782 0 0 1
-0.164062 -0.851562 -0.720074 0 0 1
-0.164062 -0.84375 -0.722993 0 0 1
-0.164062 -0.835938 -0.725122 0 0 1
-0.164062 -0.828125 -0.72618 0 0 1
-0.164062 -0.820312 -0.727496 0 0 1
-0.164062 -0.8125 -0.728354 0 0 1
-0.164062 -0.804688 -0.729207 0 0 1
-0.164062 -0.796875 -0.729962 0 0 1
-0.164062 -0.789062 -0.730149 0 0 1
-0.164062 -0.78125 -0.730375 0 0 1
-0.164062 -0.773438 -0.730397 0 0 1
-0.164062 -0.765625 -0.731274 0 0 1
-0.164062 -0.757812 -0.731166 0 0 1
-0.164062 -0.75 -0.73202 0 0 1
-0.164062 -0.742188 -0.732732 0 0 1
-0.164062 -0.734375 -0.732529 0 0 1
-0.164062 -0.726562 -0.733105 0 0 1
-0.164062 -0.71875 -0.73358 0 0 1
-0.164062 -0.710938 -0.733143 0 0 1
-0.164062 -0.703125 -0.733187 0 0 1
-0.164062 -0.695312 -0.733092 0 0 1
-0.164062 -0.6875 -0.732934 0 0 1
-0.164062 -0.679688 -0.733025 0 0 1
-0.164062 -0.671875 -0.73285 0 0 1
-0.164062 -0.664062 -0.733512 0 0 1
-0.164062 -0.65625 -0.733347 0 0 1
-0.164062 -0.648438 -0.733374 0 0 1
-0.164062 -0.640625 -0.733486 0 0 1
-0.164062 -0.632812 -0.733482 0 0 1
-0.164062 -0.625 -0.733243 0 0 1
-0.164062 -0.617188 -0.733386 0 0 1
-0.164062 -0.609375 -0.733788 0 0 1
-0.164062 -0.601562 -0.734004 0 0 1
-0.164062 -0.59375 -0.734616 0 0 1
-0.164062 -0.585938 -0.735332 0 0 1
-0.164062 -0.578125 -0.734719 0 0 1
-0.164062 -0.570312 -0.734881 0 0 1
-0.164062 -0.5625 -0.735313 0 0 1
-0.164062 -0.554688 -0.73514 0 0 1
-0.164062 -0.546875 -0.735566 0 0 1
-0.164062 -0.539062 -0.735245 0 0 1
-0.164062 -0.53125 -0.734014 0 0 1
-0.164062 -0.523438 -0.734117 0 0 1
-0.164062 -0.515625 -0.733044 0 0 1
-0.164062 -0.507812 -0.732473 0 0 1
-0.164062 -0.5 -0.731644 0 0 1
-0.164062 -0.492188 -0.729051 0 0 1
-0.164062 -0.484375 -0.724435 0 0 1
-0.164062 -0.476562 -0.717397 0 0 1
-0.164062 -0.46875 -0.711089 0 0 1
-0.164062 -0.460938 -0.705903 0 0 1
-0.164062 -0.453125 -0.702957 0 0 1
-0.164062 -0.445312 -0.699923 0 0 1
-0.164062 -0.4375 -0.696962 0 0 1
-0.164062 -0.429688 -0.695265 0 0 1
-0.164062 -0.421875 -0.695134 0 0 1
-0.164062 -0.414062 -0.694474 0 0 1
-0.164062 -0.40625 -0.6927 0 0 1
-0.164062 -0.398438 -0.689882 0 0 1
-0.164062 -0.390625 -0.68701 0 0 1
-0.164062 -0.382812 -0.684702 0 0 1
-0.164062 -0.375 -0.682362 0 0 1
-0.164062 -0.367188 -0.680075 0 0 1
-0.164062 -0.359375 -0.677602 0 0 1
-0.164062 -0.351562 -0.674951 0 0 1
-0.164062 -0.34375 -0.672079 0 0 1
-0.164062 -0.335938 -0.66923 0 0 1
-0.164062 -0.328125 -0.666702 0 0 1
-0.164062 -0.320312 -0.664472 0 0 1
-0.164062 -0.3125 -0.662138 0 0 1
-0.164062 -0.304688 -0.659708 0 0 1
-0.164062 -0.296875 -0.657508 0 0 1
-0.164062 -0.289062 -0.655487 0 0 1
-0.164062 -0.28125 -0.652947 0 0 1
-0.164062 -0.273438 -0.65098 0 0 1
-0.164062 -0.265625 -0.648859 0 0 1
-0.164062 -0.257812 -0.647069 0 0 1
-0.164062 -0.25 -0.645241 0 0 1
-0.164062 -0.242188 -0.643101 0 0 1
-0.164062 -0.234375 -0.641323 0 0 1
-0.164062 -0.226562 -0.639516 0 0 1
-0.164062 -0.21875 -0.637858 0 0 1
-0.164062 -0.210938 -0.636304 0 0 1
-0.164062 -0.203125 -0.634775 0 0 1
-0.164062 -0.195312 -0.633513 0 0 1
-0.164062 -0.1875 -0.632139 0 0 1
-0.164062 -0.179688 -0.630951 0 0 1
-0.164062 -0.171875 -0.629765 0 0 1
-0.164062 -0.164062 -0.628717 0 0 1
-0.164062 -0.15625 -0.627838 0 0 1
-0.164062 -0.148438 -0.627162 0 0 1
-0.164062 -0.140625 -0.626535 0 0 1
-0.164062 -0.132812 -0.626002 0 0 1
-0.164062 -0.125 -0.625609 0 0 1
-0.164062 -0.117188 -0.625314 0 0 1
-0.164062 -0.109375 -0.625077 0 0 1
-0.164062 -0.101562 -0.624907 0 0 1
-0.164062 -0.09375 -0.624801 0 0 1
-0.164062 -0.0859375 -0.624752 0 0 1
-0.164062 -0.078125 -0.625045 0 0 1
-0.164062 -0.0703125 -0.625188 0 0 1
-0.164062 -0.0625 -0.623022 0 0 1
-0.164062 -0.0546875 -0.622626 0 0 1
-0.164062 -0.046875 -0.622921 0 0 1
-0.164062 -0.0390625 -0.619731 0 0 1
-0.164062 -0.03125 -0.621143 0 0 1
-0.164062 -0.0234375 -0.618893 0 0 1
-0.164062 -0.015625 -0.617713 0 0 1
-0.164062 -0.0078125 -0.61543 0 0 1
-0.164062 0 -0.614484 0 0 1
-0.164062 0.0078125 -0.614377 0 0 1
-0.164062 0.015625 -0.611324 0 0 1
-0.164062 0.0234375 -0.613894 0 0 1
-0.164062 0.03125 -0.614191 0 0 1
-0.164062 0.0390625 -0.612632 0 0 1
-0.164062 0.046875 -0.611174 0 0 1
-0.164062 0.0546875 -0.609482 0 0 1
-0.164062 0.0625 -0.607486 0 0 1
-0.164062 0.0703125 -0.605898 0 0 1
-0.164062 0.078125 -0.604827 0 0 1
-0.164062 0.0859375 -0.603676 0 0 1
-0.164062 0.09375 -0.602123 0 0 1
-0.164062 0.101562 -0.60012 0 0 1
-0.164062 0.109375 -0.598687 0 0 1
-0.164062 0.117188 -0.59863 0 0 1
-0.164062 0.125 -0.599366 0 0 1
-0.164062 0.132812 -0.600469 0 0 1
-0.164062 0.140625 -0.601846 0 0 1
-0.164062 0.148438 -0.60272 0 0 1
-0.164062 0.15625 -0.603873 0 0 1
-0.164062 0.164062 -0.604994 0 0 1
-0.164062 0.171875 -0.60656 0 0 1
-0.164062 0.179688 -0.607743 0 0 1
-0.164062 0.1875 -0.608872 0 0 1
-0.164062 0.195312 -0.609171 0 0 1
-0.164062 0.203125 -0.608419 0 0 1
-0.164062 0.210938 -0.609627 0 0 1
-0.164062 0.21875 -0.609036 0 0 1
-0.164062 0.226562 -0.60961 0 0 1
-0.164062 0.234375 -0.607811 0 0 1
-0.164062 0.242188 -0.605356 0 0 1
-0.164062 0.25 -0.603128 0 0 1
-0.164062 0.257812 -0.601113 0 0 1
-0.164062 0.265625 -0.599505 0 0 1
-0.164062 0.273438 -0.598056 0 0 1
-0.164062 0.28125 -0.595673 0 0 1
-0.164062 0.289062 -0.592118 0 0 1
-0.164062 0.296875 -0.587138 0 0 1
-0.164062 0.304688 -0.582236 0 0 1
-0.164062 0.3125 -0.577859 0 0 1
-0.164062 0.320312 -0.572783 0 0 1
-0.164062 0.328125 -0.568199 0 0 1
-0.164062 0.335938 -0.566673 0 0 1
-0.164062 0.34375 -0.566159 0 0 1
-0.164062 0.351562 -0.565128 0 0 1
-0.164062 0.359375 -0.564404 0 0 1
-0.164062 0.367188 -0.564319 0 0 1
-0.164062 0.375 -0.56462 0 0 1
-0.164062 0.382812 -0.565277 0 0 1
-0.164062 0.390625 -0.566335 0 0 1
-0.164062 0.398438 -0.567874 0 0 1
-0.164062 0.40625 -0.569973 0 0 1
-0.164062 0.414062 -0.572404 0 0 1
-0.164062 0.421875 -0.575003 0 0 1
-0.164062 0.429688 -0.578036 0 0 1
-0.164062 0.4375 -0.581217 0 0 1
-0.164062 0.445312 -0.58448 0 0 1
-0.164062 0.453125 -0.587908 0 0 1
-0.164062 0.460938 -0.591046 0 0 1
-0.164062 0.46875 -0.593903 0 0 1
-0.164062 0.476562 -0.596338 0 0 1
-0.164062 0.484375 -0.598522 0 0 1
-0.164062 0.492188 -0.600379 0 0 1
-0.164062 0.5 -0.607724 0 0 1
-0.164062 0.507812 -0.621663 0 0 1
-0.164062 0.515625 -0.633535 0 0 1
-0.164062 0.523438 -0.638235 0 0 1
-0.164062 0.53125 -0.641817 0 0 1
-0.164062 0.539062 -0.646366 0 0 1
-0.164062 0.546875 -0.657082 0 0 1
-0.164062 0.65625 -0.576857 0 0 1
-0.164062 0.664062 -0.574327 0 0 1
-0.164062 0.671875 -0.57715 0 0 1
-0.164062 0.679688 -0.574523 0 0 1
-0.164062 0.6875 -0.574625 0 0 1
-0.164062 0.695312 -0.571981 0 0 1
-0.15625 -0.945312 -0.723531 0 0 1
-0.15625 -0.9375 -0.721402 0 0 1
-0.15625 -0.929688 -0.72084 0 0 1
-0.15625 -0.921875 -0.72048 0 0 1
-0.15625 -0.914062 -0.720788 0 0 1
-0.15625 -0.90625 -0.720864 0 0 1
-0.15625 -0.898438 -0.719605 0 0 1
-0.15625 -0.890625 -0.718084 0 0 1
-0.15625 -0.882812 -0.717147 0 0 1
