-1.0625 -0.03125 0.661248 0 0 1
-1.0625 -0.0234375 0.665795 0 0 1
-1.0625 -0.015625 0.671052 0 0 1
-1.0625 -0.0078125 0.677179 0 0 1
-1.0625 0 0.68105 0 0 1
-1.0625 0.0078125 0.684742 0 0 1
-1.0625 0.015625 0.688356 0 0 1
-1.0625 0.0234375 0.691072 0 0 1
-1.0625 0.03125 0.69276 0 0 1
-1.0625 0.0390625 0.694252 0 0 1
-1.0625 0.046875 0.69591 0 0 1
-1.0625 0.0546875 0.696972 0 0 1
-1.0625 0.0625 0.697799 0 0 1
-1.0625 0.0703125 0.697676 0 0 1
-1.0625 0.078125 0.696478 0 0 1
-1.0625 0.0859375 0.69421 0 0 1
-1.0625 0.09375 0.691681 0 0 1
-1.0625 0.101562 0.687952 0 0 1
-1.0625 0.109375 0.682609 0 0 1
-1.05469 -0.015625 0.647425 0 0 1
-1.05469 -0.0078125 0.654474 0 0 1
-1.05469 0 0.667701 0 0 1
-1.05469 0.0078125 0.673756 0 0 1
-1.05469 0.015625 0.679685 0 0 1
-1.05469 0.0234375 0.683694 0 0 1
-1.05469 0.03125 0.686512 0 0 1
-1.05469 0.0390625 0.688997 0 0 1
-1.05469 0.046875 0.691074 0 0 1
-1.05469 0.0546875 0.692791 0 0 1
-1.05469 0.0625 0.69411 0 0 1
-1.05469 0.0703125 0.694637 0 0 1
-1.05469 0.078125 0.694298 0 0 1
-1.05469 0.0859375 0.693379 0 0 1
-1.05469 0.09375 0.691752 0 0 1
-1.05469 0.101562 0.688908 0 0 1
-1.05469 0.109375 0.685648 0 0 1
-1.05469 0.117188 0.681287 0 0 1
-1.04688 0.0078125 0.658611 0 0 1
-1.04688 0.015625 0.66985 0 0 1
-1.04688 0.0234375 0.675684 0 0 1
-1.04688 0.03125 0.679698 0 0 1
-1.04688 0.0390625 0.6831 0 0 1
-1.04688 0.046875 0.685683 0 0 1
-1.04688 0.0546875 0.687994 0 0 1
-1.04688 0.0625 0.689723 0 0 1
-1.04688 0.0703125 0.690946 0 0 1
-1.04688 0.078125 0.691568 0 0 1
-1.04688 0.0859375 0.691148 0 0 1
-1.04688 0.09375 0.690196 0 0 1
-1.04688 0.101562 0.687915 0 0 1
-1.04688 0.109375 0.686232 0 0 1
-1.04688 0.117188 0.683777 0 0 1
-1.04688 0.125 0.67969 0 0 1
-1.04688 0.132812 0.670484 0 0 1
-1.03906 0.015625 0.655079 0 0 1
-1.03906 0.0234375 0.665967 0 0 1
-1.03906 0.03125 0.672166 0 0 1
-1.03906 0.0390625 0.676523 0 0 1
-1.03906 0.046875 0.680269 0 0 1
-1.03906 0.0546875 0.683461 0 0 1
-1.03906 0.0625 0.685267 0 0 1
-1.03906 0.0703125 0.686808 0 0 1
-1.03906 0.078125 0.688016 0 0 1
-1.03906 0.0859375 0.688487 0 0 1
-1.03906 0.09375 0.68812 0 0 1
-1.03906 0.101562 0.687353 0 0 1
-1.03906 0.109375 0.686042 0 0 1
-1.03906 0.117188 0.684286 0 0 1
-1.03906 0.125 0.681606 0 0 1
-1.03906 0.132812 0.677583 0 0 1
-1.03906 0.140625 0.668043 0 0 1
-1.03125 0.0234375 0.652667 0 0 1
-1.03125 0.03125 0.662985 0 0 1
-1.03125 0.0390625 0.668692 0 0 1
-1.03125 0.046875 0.673565 0 0 1
-1.03125 0.0546875 0.677221 0 0 1
-1.03125 0.0625 0.680149 0 0 1
-1.03125 0.0703125 0.68245 0 0 1
-1.03125 0.078125 0.684114 0 0 1
-1.03125 0.0859375 0.68538 0 0 1
-1.03125 0.09375 0.685665 0 0 1
-1.03125 0.101562 0.685607 0 0 1
-1.03125 0.109375 0.684858 0 0 1
-1.03125 0.117188 0.683501 0 0 1
-1.03125 0.125 0.681096 0 0 1
-1.03125 0.132812 0.678597 0 0 1
-1.03125 0.140625 0.675515 0 0 1
-1.03125 0.148438 0.66808 0 0 1
-1.02344 0.03125 0.651846 0 0 1
-1.02344 0.0390625 0.659988 0 0 1
-1.02344 0.046875 0.665536 0 0 1
-1.02344 0.0546875 0.670155 0 0 1
-1.02344 0.0625 0.674195 0 0 1
-1.02344 0.0703125 0.677353 0 0 1
-1.02344 0.078125 0.679714 0 0 1
-1.02344 0.0859375 0.681341 0 0 1
-1.02344 0.09375 0.682084 0 0 1
-1.02344 0.101562 0.682437 0 0 1
-1.02344 0.109375 0.682106 0 0 1
-1.02344 0.117188 0.681291 0 0 1
-1.02344 0.125 0.679634 0 0 1
-1.02344 0.132812 0.678084 0 0 1
-1.02344 0.140625 0.676269 0 0 1
-1.02344 0.148438 0.673607 0 0 1
-1.02344 0.15625 0.666977 0 0 1
-1.01562 0.0390625 0.649081 0 0 1
-1.01562 0.046875 0.65754 0 0 1
-1.01562 0.0546875 0.662409 0 0 1
-1.01562 0.0625 0.667497 0 0 1
-1.01562 0.0703125 0.671104 0 0 1
-1.01562 0.078125 0.674096 0 0 1
-1.01562 0.0859375 0.676348 0 0 1
-1.01562 0.09375 0.677652 0 0 1
-1.01562 0.101562 0.678484 0 0 1
-1.01562 0.109375 0.678778 0 0 1
-1.01562 0.117188 0.678268 0 0 1
-1.01562 0.125 0.677496 0 0 1
-1.01562 0.132812 0.676458 0 0 1
-1.01562 0.140625 0.675344 0 0 1
-1.01562 0.148438 0.673883 0 0 1
-1.01562 0.15625 0.671563 0 0 1
-1.01562 0.164062 0.665435 0 0 1
-1.01562 0.171875 0.650597 0 0 1
-1.00781 0.0390625 0.632642 0 0 1
-1.00781 0.046875 0.646809 0 0 1
-1.00781 0.0546875 0.654446 0 0 1
-1.00781 0.0625 0.660074 0 0 1
-1.00781 0.0703125 0.664375 0 0 1
-1.00781 0.078125 0.668233 0 0 1
-1.00781 0.0859375 0.671304 0 0 1
-1.00781 0.09375 0.672978 0 0 1
-1.00781 0.101562 0.674362 0 0 1
-1.00781 0.109375 0.675019 0 0 1
-1.00781 0.117188 0.675277 0 0 1
-1.00781 0.125 0.675025 0 0 1
-1.00781 0.132812 0.674514 0 0 1
-1.00781 0.140625 0.673992 0 0 1
-1.00781 0.148438 0.672981 0 0 1
-1.00781 0.15625 0.671614 0 0 1
-1.00781 0.164062 0.668401 0 0 1
-1.00781 0.171875 0.663577 0 0 1
-1.00781 0.179688 0.654626 0 0 1
-1 0.046875 0.633298 0 0 1
-1 0.0546875 0.645022 0 0 1
-1 0.0625 0.652043 0 0 1
-1 0.0703125 0.657461 0 0 1
-1 0.078125 0.661901 0 0 1
-1 0.0859375 0.665509 0 0 1
-1 0.09375 0.667685 0 0 1
-1 0.101562 0.669675 0 0 1
-1 0.109375 0.67097 0 0 1
-1 0.117188 0.67172 0 0 1
-1 0.125 0.672176 0 0 1
-1 0.132812 0.672322 0 0 1
-1 0.140625 0.671937 0 0 1
-1 0.148438 0.671458 0 0 1
-1 0.15625 0.670665 0 0 1
-1 0.164062 0.668394 0 0 1
-1 0.171875 0.6663 0 0 1
-1 0.179688 0.662497 0 0 1
-1 0.1875 0.655367 0 0 1
-0.992188 0.0546875 0.631764 0 0 1
-0.992188 0.0625 0.642301 0 0 1
-0.992188 0.0703125 0.649592 0 0 1
-0.992188 0.078125 0.654999 0 0 1
-0.992188 0.0859375 0.658839 0 0 1
-0.992188 0.09375 0.661812 0 0 1
-0.992188 0.101562 0.664303 0 0 1
-0.992188 0.109375 0.666735 0 0 1
-0.992188 0.117188 0.667874 0 0 1
-0.992188 0.125 0.668559 0 0 1
-0.992188 0.132812 0.668973 0 0 1
-0.992188 0.140625 0.669189 0 0 1
-0.992188 0.148438 0.669456 0 0 1
-0.992188 0.15625 0.669116 0 0 1
-0.992188 0.164062 0.668056 0 0 1
-0.992188 0.171875 0.666727 0 0 1
-0.992188 0.179688 0.665365 0 0 1
-0.992188 0.1875 0.662211 0 0 1
-0.992188 0.195312 0.65627 0 0 1
-0.992188 0.203125 0.647237 0 0 1
-0.984375 0.0625 0.630809 0 0 1
-0.984375 0.0703125 0.640227 0 0 1
-0.984375 0.078125 0.647086 0 0 1
-0.984375 0.0859375 0.652114 0 0 1
-0.984375 0.09375 0.655585 0 0 1
-0.984375 0.101562 0.659059 0 0 1
-0.984375 0.109375 0.661878 0 0 1
-0.984375 0.117188 0.663411 0 0 1
-0.984375 0.125 0.664401 0 0 1
-0.984375 0.132812 0.665556 0 0 1
-0.984375 0.140625 0.666627 0 0 1
-0.984375 0.148438 0.667103 0 0 1
-0.984375 0.15625 0.667114 0 0 1
-0.984375 0.164062 0.666866 0 0 1
-0.984375 0.171875 0.665861 0 0 1
-0.984375 0.179688 0.66532 0 0 1
-0.984375 0.1875 0.663886 0 0 1
-0.984375 0.195312 0.661115 0 0 1
-0.984375 0.203125 0.657251 0 0 1
-0.984375 0.210938 0.651539 0 0 1
-0.984375 0.21875 0.64064 0 0 1
-0.976562 0.0703125 0.62855 0 0 1
-0.976562 0.078125 0.637375 0 0 1
-0.976562 0.0859375 0.644228 0 0 1
-0.976562 0.09375 0.64894 0 0 1
-0.976562 0.101562 0.652904 0 0 1
-0.976562 0.109375 0.656322 0 0 1
-0.976562 0.117188 0.658754 0 0 1
-0.976562 0.125 0.660519 0 0 1
-0.976562 0.132812 0.662443 0 0 1
-0.976562 0.140625 0.663923 0 0 1
-0.976562 0.148438 0.664704 0 0 1
-0.976562 0.15625 0.664676 0 0 1
-0.976562 0.164062 0.664886 0 0 1
-0.976562 0.171875 0.664667 0 0 1
-0.976562 0.179688 0.664544 0 0 1
-0.976562 0.1875 0.664036 0 0 1
-0.976562 0.195312 0.662626 0 0 1
-0.976562 0.203125 0.660275 0 0 1
-0.976562 0.210938 0.657431 0 0 1
-0.976562 0.21875 0.652814 0 0 1
-0.976562 0.226562 0.645879 0 0 1
-0.976562 0.234375 0.632174 0 0 1
-0.96875 0.078125 0.625722 0 0 1
-0.96875 0.0859375 0.634944 0 0 1
-0.96875 0.09375 0.641597 0 0 1
-0.96875 0.101562 0.646139 0 0 1
-0.96875 0.109375 0.650063 0 0 1
-0.96875 0.117188 0.653528 0 0 1
-0.96875 0.125 0.65636 0 0 1
-0.96875 0.132812 0.658816 0 0 1
-0.96875 0.140625 0.660743 0 0 1
-0.96875 0.148438 0.661888 0 0 1
-0.96875 0.15625 0.661773 0 0 1
-0.96875 0.164062 0.661783 0 0 1
-0.96875 0.171875 0.662468 0 0 1
-0.96875 0.179688 0.662547 0 0 1
-0.96875 0.1875 0.662822 0 0 1
-0.96875 0.195312 0.662645 0 0 1
-0.96875 0.203125 0.661186 0 0 1
-0.96875 0.210938 0.65957 0 0 1
-0.96875 0.21875 0.657155 0 0 1
-0.96875 0.226562 0.653155 0 0 1
-0.96875 0.234375 0.648418 0 0 1
-0.96875 0.242188 0.640347 0 0 1
-0.960938 0.0859375 0.624485 0 0 1
-0.960938 0.09375 0.63302 0 0 1
-0.960938 0.101562 0.639088 0 0 1
-0.960938 0.109375 0.64384 0 0 1
-0.960938 0.117188 0.647819 0 0 1
-0.960938 0.125 0.651784 0 0 1
-0.960938 0.132812 0.654549 0 0 1
-0.960938 0.140625 0.656749 0 0 1
-0.960938 0.148438 0.658331 0 0 1
-0.960938 0.15625 0.659052 0 0 1
-0.960938 0.164062 0.659726 0 0 1
-0.960938 0.171875 0.660468 0 0 1
-0.960938 0.179688 0.661197 0 0 1
-0.960938 0.1875 0.661748 0 0 1
-0.960938 0.195312 0.661514 0 0 1
-0.960938 0.203125 0.661051 0 0 1
-0.960938 0.210938 0.660618 0 0 1
-0.960938 0.21875 0.659193 0 0 1
-0.960938 0.226562 0.65609 0 0 1
-0.960938 0.234375 0.652968 0 0 1
-0.960938 0.242188 0.649033 0 0 1
-0.960938 0.25 0.642521 0 0 1
-0.960938 0.257812 0.630328 0 0 1
-0.953125 0.0859375 0.608336 0 0 1
-0.953125 0.09375 0.62339 0 0 1
-0.953125 0.101562 0.631634 0 0 1
-0.953125 0.109375 0.637771 0 0 1
-0.953125 0.117188 0.64227 0 0 1
-0.953125 0.125 0.646333 0 0 1
-0.953125 0.132812 0.649291 0 0 1
-0.953125 0.140625 0.651841 0 0 1
-0.953125 0.148438 0.654086 0 0 1
-0.953125 0.15625 0.656306 0 0 1
-0.953125 0.164062 0.657418 0 0 1
-0.953125 0.171875 0.658028 0 0 1
-0.953125 0.179688 0.658955 0 0 1
-0.953125 0.1875 0.659639 0 0 1
-0.953125 0.195312 0.659802 0 0 1
-0.953125 0.203125 0.66011 0 0 1
-0.953125 0.210938 0.660166 0 0 1
-0.953125 0.21875 0.65943 0 0 1
-0.953125 0.226562 0.65757 0 0 1
-0.953125 0.234375 0.655526 0 0 1
-0.953125 0.242188 0.652692 0 0 1
-0.953125 0.25 0.648438 0 0 1
-0.953125 0.257812 0.643609 0 0 1
-0.953125 0.265625 0.635283 0 0 1
-0.945312 0.09375 0.608253 0 0 1
-0.945312 0.101562 0.62215 0 0 1
-0.945312 0.109375 0.630369 0 0 1
-0.945312 0.117188 0.636392 0 0 1
-0.945312 0.125 0.640529 0 0 1
-0.945312 0.132812 0.644181 0 0 1
-0.945312 0.140625 0.646889 0 0 1
-0.945312 0.148438 0.650117 0 0 1
-0.945312 0.15625 0.653328 0 0 1
-0.945312 0.164062 0.654496 0 0 1
-0.945312 0.171875 0.654703 0 0 1
-0.945312 0.179688 0.655789 0 0 1
-0.945312 0.1875 0.657137 0 0 1
-0.945312 0.195312 0.657889 0 0 1
-0.945312 0.203125 0.658307 0 0 1
-0.945312 0.210938 0.659091 0 0 1
-0.945312 0.21875 0.659009 0 0 1
-0.945312 0.226562 0.658322 0 0 1
-0.945312 0.234375 0.65665 0 0 1
-0.945312 0.242188 0.654286 0 0 1
-0.945312 0.25 0.651058 0 0 1
-0.945312 0.257812 0.647953 0 0 1
-0.945312 0.265625 0.644296 0 0 1
-0.945312 0.273438 0.640078 0 0 1
-0.945312 0.28125 0.631302 0 0 1
-0.9375 0.101562 0.609137 0 0 1
-0.9375 0.109375 0.621466 0 0 1
-0.9375 0.117188 0.629335 0 0 1
-0.9375 0.125 0.634707 0 0 1
-0.9375 0.132812 0.639029 0 0 1
-0.9375 0.140625 0.642384 0 0 1
-0.9375 0.148438 0.645838 0 0 1
-0.9375 0.15625 0.64863 0 0 1
-0.9375 0.164062 0.650013 0 0 1
-0.9375 0.171875 0.650778 0 0 1
-0.9375 0.179688 0.652863 0 0 1
-0.9375 0.1875 0.654533 0 0 1
-0.9375 0.195312 0.655433 0 0 1
-0.9375 0.203125 0.656328 0 0 1
-0.9375 0.210938 0.657601 0 0 1
-0.9375 0.21875 0.658136 0 0 1
-0.9375 0.226562 0.657457 0 0 1
-0.9375 0.234375 0.656308 0 0 1
-0.9375 0.242188 0.654542 0 0 1
-0.9375 0.25 0.65231 0 0 1
-0.9375 0.257812 0.649895 0 0 1
-0.9375 0.265625 0.647224 0 0 1
-0.9375 0.273438 0.645063 0 0 1
-0.9375 0.28125 0.64063 0 0 1
-0.9375 0.289062 0.634721 0 0 1
-0.9375 0.296875 0.624542 0 0 1
-0.929688 0.109375 0.60929 0 0 1
-0.929688 0.117188 0.620246 0 0 1
-0.929688 0.125 0.627487 0 0 1
-0.929688 0.132812 0.63334 0 0 1
-0.929688 0.140625 0.637179 0 0 1
-0.929688 0.148438 0.641076 0 0 1
-0.929688 0.15625 0.644422 0 0 1
-0.929688 0.164062 0.646284 0 0 1
-0.929688 0.171875 0.648008 0 0 1
-0.929688 0.179688 0.65013 0 0 1
-0.929688 0.1875 0.651838 0 0 1
-0.929688 0.195312 0.652964 0 0 1
-0.929688 0.203125 0.65434 0 0 1
-0.929688 0.210938 0.655446 0 0 1
-0.929688 0.21875 0.656303 0 0 1
-0.929688 0.226562 0.656028 0 0 1
-0.929688 0.234375 0.655266 0 0 1
-0.929688 0.242188 0.654315 0 0 1
-0.929688 0.25 0.652587 0 0 1
-0.929688 0.257812 0.650599 0 0 1
-0.929688 0.265625 0.648587 0 0 1
-0.929688 0.273438 0.646951 0 0 1
-0.929688 0.28125 0.643732 0 0 1
-0.929688 0.289062 0.640295 0 0 1
-0.929688 0.296875 0.63563 0 0 1
-0.929688 0.304688 0.627991 0 0 1
-0.921875 0.117188 0.608407 0 0 1
-0.921875 0.125 0.618999 0 0 1
-0.921875 0.132812 0.626099 0 0 1
-0.921875 0.140625 0.63119 0 0 1
-0.921875 0.148438 0.635222 0 0 1
-0.921875 0.15625 0.639052 0 0 1
-0.921875 0.164062 0.642253 0 0 1
-0.921875 0.171875 0.644743 0 0 1
-0.921875 0.179688 0.646852 0 0 1
-0.921875 0.1875 0.648887 0 0 1
-0.921875 0.195312 0.65076 0 0 1
-0.921875 0.203125 0.652542 0 0 1
-0.921875 0.210938 0.653311 0 0 1
-0.921875 0.21875 0.654059 0 0 1
-0.921875 0.226562 0.654191 0 0 1
-0.921875 0.234375 0.653911 0 0 1
-0.921875 0.242188 0.653463 0 0 1
-0.921875 0.25 0.652514 0 0 1
-0.921875 0.257812 0.650731 0 0 1
-0.921875 0.265625 0.648838 0 0 1
-0.921875 0.273438 0.647827 0 0 1
-0.921875 0.28125 0.645108 0 0 1
-0.921875 0.289062 0.642316 0 0 1
-0.921875 0.296875 0.639026 0 0 1
-0.921875 0.304688 0.634856 0 0 1
-0.921875 0.3125 0.628238 0 0 1
-0.921875 0.320312 0.609862 0 0 1
-0.914062 0.125 0.607274 0 0 1
-0.914062 0.132812 0.617957 0 0 1
-0.914062 0.140625 0.623866 0 0 1
-0.914062 0.148438 0.629246 0 0 1
-0.914062 0.15625 0.633262 0 0 1
-0.914062 0.164062 0.637319 0 0 1
-0.914062 0.171875 0.640519 0 0 1
-0.914062 0.179688 0.642972 0 0 1
-0.914062 0.1875 0.645106 0 0 1
-0.914062 0.195312 0.647731 0 0 1
-0.914062 0.203125 0.650169 0 0 1
-0.914062 0.210938 0.651009 0 0 1
-0.914062 0.21875 0.651831 0 0 1
-0.914062 0.226562 0.652147 0 0 1
-0.914062 0.234375 0.65203 0 0 1
-0.914062 0.242188 0.652225 0 0 1
-0.914062 0.25 0.651545 0 0 1
-0.914062 0.257812 0.649968 0 0 1
-0.914062 0.265625 0.64856 0 0 1
-0.914062 0.273438 0.647244 0 0 1
-0.914062 0.28125 0.645303 0 0 1
-0.914062 0.289062 0.642829 0 0 1
-0.914062 0.296875 0.640095 0 0 1
-0.914062 0.304688 0.636781 0 0 1
-0.914062 0.3125 0.632977 0 0 1
-0.914062 0.320312 0.626913 0 0 1
-0.914062 0.328125 0.609414 0 0 1
-0.90625 0.125 0.584998 0 0 1
-0.90625 0.132812 0.606565 0 0 1
-0.90625 0.140625 0.615055 0 0 1
-0.90625 0.148438 0.622121 0 0 1
-0.90625 0.15625 0.6272 0 0 1
-0.90625 0.164062 0.631713 0 0 1
-0.90625 0.171875 0.635752 0 0 1
-0.90625 0.179688 0.63894 0 0 1
-0.90625 0.1875 0.64159 0 0 1
-0.90625 0.195312 0.644231 0 0 1
-0.90625 0.203125 0.646748 0 0 1
-0.90625 0.210938 0.648219 0 0 1
-0.90625 0.21875 0.649704 0 0 1
-0.90625 0.226562 0.650097 0 0 1
-0.90625 0.234375 0.64991 0 0 1
-0.90625 0.242188 0.650455 0 0 1
-0.90625 0.25 0.649849 0 0 1
-0.90625 0.257812 0.648574 0 0 1
-0.90625 0.265625 0.64737 0 0 1
-0.90625 0.273438 0.646273 0 0 1
-0.90625 0.28125 0.644611 0 0 1
-0.90625 0.289062 0.642027 0 0 1
-0.90625 0.296875 0.639344 0 0 1
-0.90625 0.304688 0.636959 0 0 1
-0.90625 0.3125 0.634031 0 0 1
-0.90625 0.320312 0.630507 0 0 1
-0.90625 0.328125 0.624873 0 0 1
-0.90625 0.335938 0.608167 0 0 1
-0.898438 0.140625 0.604169 0 0 1
-0.898438 0.148438 0.613042 0 0 1
-0.898438 0.15625 0.619824 0 0 1
-0.898438 0.164062 0.625312 0 0 1
-0.898438 0.171875 0.629994 0 0 1
-0.898438 0.179688 0.63426 0 0 1
-0.898438 0.1875 0.637495 0 0 1
-0.898438 0.195312 0.640599 0 0 1
-0.898438 0.203125 0.642919 0 0 1
-0.898438 0.210938 0.645121 0 0 1
-0.898438 0.21875 0.646991 0 0 1
-0.898438 0.226562 0.648067 0 0 1
-0.898438 0.234375 0.648368 0 0 1
-0.898438 0.242188 0.648593 0 0 1
-0.898438 0.25 0.648084 0 0 1
-0.898438 0.257812 0.647119 0 0 1
-0.898438 0.265625 0.646084 0 0 1
-0.898438 0.273438 0.644626 0 0 1
-0.898438 0.28125 0.643044 0 0 1
-0.898438 0.289062 0.64073 0 0 1
-0.898438 0.296875 0.639139 0 0 1
-0.898438 0.304688 0.636596 0 0 1
-0.898438 0.3125 0.63403 0 0 1
-0.898438 0.320312 0.631126 0 0 1
-0.898438 0.328125 0.627647 0 0 1
-0.898438 0.335938 0.622469 0 0 1
-0.898438 0.34375 0.608284 0 0 1
-0.890625 0.148438 0.60207 0 0 1
-0.890625 0.15625 0.61087 0 0 1
-0.890625 0.164062 0.617815 0 0 1
-0.890625 0.171875 0.623282 0 0 1
-0.890625 0.179688 0.628637 0 0 1
-0.890625 0.1875 0.632721 0 0 1
-0.890625 0.195312 0.63608 0 0 1
-0.890625 0.203125 0.638925 0 0 1
-0.890625 0.210938 0.641394 0 0 1
-0.890625 0.21875 0.643548 0 0 1
-0.890625 0.226562 0.645084 0 0 1
-0.890625 0.234375 0.646028 0 0 1
-0.890625 0.242188 0.646381 0 0 1
-0.890625 0.25 0.646132 0 0 1
-0.890625 0.257812 0.645319 0 0 1
-0.890625 0.265625 0.644384 0 0 1
-0.890625 0.273438 0.643052 0 0 1
-0.890625 0.28125 0.641238 0 0 1
-0.890625 0.289062 0.638936 0 0 1
-0.890625 0.296875 0.637153 0 0 1
-0.890625 0.304688 0.634983 0 0 1
-0.890625 0.3125 0.633244 0 0 1
-0.890625 0.320312 0.630669 0 0 1
-0.890625 0.328125 0.628125 0 0 1
-0.890625 0.335938 0.624918 0 0 1
-0.890625 0.34375 0.620285 0 0 1
-0.890625 0.351562 0.606305 0 0 1
-0.882812 0.15625 0.599852 0 0 1
-0.882812 0.164062 0.60887 0 0 1
-0.882812 0.171875 0.615677 0 0 1
-0.882812 0.179688 0.621637 0 0 1
-0.882812 0.1875 0.627167 0 0 1
-0.882812 0.195312 0.631133 0 0 1
-0.882812 0.203125 0.634625 0 0 1
-0.882812 0.210938 0.637537 0 0 1
-0.882812 0.21875 0.640159 0 0 1
-0.882812 0.226562 0.641806 0 0 1
-0.882812 0.234375 0.642974 0 0 1
-0.882812 0.242188 0.643668 0 0 1
-0.882812 0.25 0.643683 0 0 1
-0.882812 0.257812 0.643105 0 0 1
-0.882812 0.265625 0.642156 0 0 1
-0.882812 0.273438 0.640953 0 0 1
-0.882812 0.28125 0.639454 0 0 1
-0.882812 0.289062 0.637349 0 0 1
-0.882812 0.296875 0.635311 0 0 1
-0.882812 0.304688 0.633365 0 0 1
-0.882812 0.3125 0.631608 0 0 1
-0.882812 0.320312 0.629303 0 0 1
-0.882812 0.328125 0.627112 0 0 1
-0.882812 0.335938 0.624846 0 0 1
-0.882812 0.34375 0.62232 0 0 1
-0.882812 0.351562 0.618401 0 0 1
-0.882812 0.359375 0.606215 0 0 1
-0.875 0.15625 0.579375 0 0 1
-0.875 0.164062 0.598166 0 0 1
-0.875 0.171875 0.606546 0 0 1
-0.875 0.179688 0.613291 0 0 1
-0.875 0.1875 0.620433 0 0 1
-0.875 0.195312 0.625544 0 0 1
-0.875 0.203125 0.629577 0 0 1
-0.875 0.210938 0.632927 0 0 1
-0.875 0.21875 0.635388 0 0 1
-0.875 0.226562 0.637157 0 0 1
-0.875 0.234375 0.638927 0 0 1
-0.875 0.242188 0.639807 0 0 1
-0.875 0.25 0.640391 0 0 1
-0.875 0.257812 0.64054 0 0 1
-0.875 0.265625 0.639829 0 0 1
-0.875 0.273438 0.638515 0 0 1
-0.875 0.28125 0.637321 0 0 1
-0.875 0.289062 0.635554 0 0 1
-0.875 0.296875 0.633694 0 0 1
-0.875 0.304688 0.6314 0 0 1
-0.875 0.3125 0.629367 0 0 1
-0.875 0.320312 0.627393 0 0 1
-0.875 0.328125 0.625669 0 0 1
-0.875 0.335938 0.623711 0 0 1
-0.875 0.34375 0.62213 0 0 1
-0.875 0.351562 0.620319 0 0 1
-0.875 0.359375 0.616769 0 0 1
-0.875 0.367188 0.604382 0 0 1
-0.867188 0.164062 0.576783 0 0 1
-0.867188 0.171875 0.594726 0 0 1
-0.867188 0.179688 0.603925 0 0 1
-0.867188 0.1875 0.611842 0 0 1
-0.867188 0.195312 0.618899 0 0 1
-0.867188 0.203125 0.623839 0 0 1
-0.867188 0.210938 0.627828 0 0 1
-0.867188 0.21875 0.630301 0 0 1
-0.867188 0.226562 0.632689 0 0 1
-0.867188 0.234375 0.63446 0 0 1
-0.867188 0.242188 0.635414 0 0 1
-0.867188 0.25 0.636576 0 0 1
-0.867188 0.257812 0.637662 0 0 1
-0.867188 0.265625 0.637168 0 0 1
-0.867188 0.273438 0.635979 0 0 1
-0.867188 0.28125 0.635114 0 0 1
-0.867188 0.289062 0.633588 0 0 1
-0.867188 0.296875 0.631823 0 0 1
-0.867188 0.304688 0.629434 0 0 1
-0.867188 0.3125 0.627095 0 0 1
-0.867188 0.320312 0.625056 0 0 1
-0.867188 0.328125 0.623447 0 0 1
-0.867188 0.335938 0.622422 0 0 1
-0.867188 0.34375 0.621317 0 0 1
-0.867188 0.351562 0.620539 0 0 1
-0.867188 0.359375 0.619739 0 0 1
-0.867188 0.367188 0.615671 0 0 1
-0.867188 0.375 0.605256 0 0 1
-0.859375 0.179688 0.591066 0 0 1
-0.859375 0.1875 0.601825 0 0 1
-0.859375 0.195312 0.610313 0 0 1
-0.859375 0.203125 0.616646 0 0 1
-0.859375 0.210938 0.621667 0 0 1
-0.859375 0.21875 0.62491 0 0 1
-0.859375 0.226562 0.627974 0 0 1
-0.859375 0.234375 0.630307 0 0 1
-0.859375 0.242188 0.631612 0 0 1
-0.859375 0.25 0.633196 0 0 1
-0.859375 0.257812 0.634196 0 0 1
-0.859375 0.265625 0.634367 0 0 1
-0.859375 0.273438 0.633861 0 0 1
-0.859375 0.28125 0.633082 0 0 1
-0.859375 0.289062 0.631737 0 0 1
-0.859375 0.296875 0.629998 0 0 1
-0.859375 0.304688 0.627808 0 0 1
-0.859375 0.3125 0.624984 0 0 1
-0.859375 0.320312 0.62249 0 0 1
-0.859375 0.328125 0.621149 0 0 1
-0.859375 0.335938 0.620382 0 0 1
-0.859375 0.34375 0.619915 0 0 1
-0.859375 0.351562 0.620017 0 0 1
-0.859375 0.359375 0.620345 0 0 1
-0.859375 0.367188 0.619805 0 0 1
-0.859375 0.375 0.615682 0 0 1
-0.859375 0.382812 0.606538 0 0 1
-0.851562 0.1875 0.588302 0 0 1
-0.851562 0.195312 0.59926 0 0 1
-0.851562 0.203125 0.607635 0 0 1
-0.851562 0.210938 0.613834 0 0 1
-0.851562 0.21875 0.618392 0 0 1
-0.851562 0.226562 0.621853 0 0 1
-0.851562 0.234375 0.624855 0 0 1
-0.851562 0.242188 0.626913 0 0 1
-0.851562 0.25 0.628772 0 0 1
-0.851562 0.257812 0.630122 0 0 1
-0.851562 0.265625 0.63089 0 0 1
-0.851562 0.273438 0.631172 0 0 1
-0.851562 0.28125 0.630775 0 0 1
-0.851562 0.289062 0.629883 0 0 1
-0.851562 0.296875 0.628823 0 0 1
-0.851562 0.304688 0.627129 0 0 1
-0.851562 0.3125 0.623998 0 0 1
-0.851562 0.320312 0.620646 0 0 1
-0.851562 0.328125 0.618371 0 0 1
-0.851562 0.335938 0.617656 0 0 1
-0.851562 0.34375 0.618262 0 0 1
-0.851562 0.351562 0.619133 0 0 1
-0.851562 0.359375 0.619935 0 0 1
-0.851562 0.367188 0.620728 0 0 1
-0.851562 0.375 0.620601 0 0 1
-0.851562 0.382812 0.616559 0 0 1
-0.851562 0.390625 0.608904 0 0 1
-0.84375 0.195312 0.583259 0 0 1
-0.84375 0.203125 0.595288 0 0 1
-0.84375 0.210938 0.604254 0 0 1
-0.84375 0.21875 0.610544 0 0 1
-0.84375 0.226562 0.614648 0 0 1
-0.84375 0.234375 0.618154 0 0 1
-0.84375 0.242188 0.621281 0 0 1
-0.84375 0.25 0.623333 0 0 1
-0.84375 0.257812 0.625184 0 0 1
-0.84375 0.265625 0.627044 0 0 1
-0.84375 0.273438 0.62797 0 0 1
-0.84375 0.28125 0.628417 0 0 1
-0.84375 0.289062 0.628388 0 0 1
-0.84375 0.296875 0.627954 0 0 1
-0.84375 0.304688 0.627299 0 0 1
-0.84375 0.3125 0.623703 0 0 1
-0.84375 0.320312 0.619419 0 0 1
-0.84375 0.328125 0.61673 0 0 1
-0.84375 0.335938 0.616153 0 0 1
-0.84375 0.34375 0.61666 0 0 1
-0.84375 0.351562 0.618124 0 0 1
-0.84375 0.359375 0.619809 0 0 1
-0.84375 0.367188 0.621175 0 0 1
-0.84375 0.375 0.622036 0 0 1
-0.84375 0.382812 0.621751 0 0 1
-0.84375 0.390625 0.61832 0 0 1
-0.84375 0.398438 0.612903 0 0 1
-0.835938 0.203125 0.575709 0 0 1
-0.835938 0.210938 0.591578 0 0 1
-0.835938 0.21875 0.600554 0 0 1
-0.835938 0.226562 0.606678 0 0 1
-0.835938 0.234375 0.611574 0 0 1
-0.835938 0.242188 0.61538 0 0 1
-0.835938 0.25 0.618625 0 0 1
-0.835938 0.257812 0.621152 0 0 1
-0.835938 0.265625 0.623245 0 0 1
-0.835938 0.273438 0.624705 0 0 1
-0.835938 0.28125 0.62573 0 0 1
-0.835938 0.289062 0.626588 0 0 1
-0.835938 0.296875 0.626982 0 0 1
-0.835938 0.304688 0.627241 0 0 1
-0.835938 0.3125 0.623955 0 0 1
-0.835938 0.320312 0.619848 0 0 1
-0.835938 0.328125 0.616813 0 0 1
-0.835938 0.335938 0.615747 0 0 1
-0.835938 0.34375 0.616578 0 0 1
-0.835938 0.351562 0.618203 0 0 1
-0.835938 0.359375 0.620036 0 0 1
-0.835938 0.367188 0.621688 0 0 1
-0.835938 0.375 0.622996 0 0 1
-0.835938 0.382812 0.623978 0 0 1
-0.835938 0.390625 0.62352 0 0 1
-0.835938 0.398438 0.621251 0 0 1
-0.835938 0.40625 0.617942 0 0 1
-0.835938 0.414062 0.611249 0 0 1
-0.828125 0.210938 0.567946 0 0 1
-0.828125 0.21875 0.587796 0 0 1
-0.828125 0.226562 0.596779 0 0 1
-0.828125 0.234375 0.604058 0 0 1
-0.828125 0.242188 0.609211 0 0 1
-0.828125 0.25 0.613477 0 0 1
-0.828125 0.257812 0.616647 0 0 1
-0.828125 0.265625 0.619245 0 0 1
-0.828125 0.273438 0.62102 0 0 1
-0.828125 0.28125 0.622398 0 0 1
-0.828125 0.289062 0.62415 0 0 1
-0.828125 0.296875 0.625332 0 0 1
-0.828125 0.304688 0.626336 0 0 1
-0.828125 0.3125 0.624974 0 0 1
-0.828125 0.320312 0.622328 0 0 1
-0.828125 0.328125 0.619875 0 0 1
-0.828125 0.335938 0.617451 0 0 1
-0.828125 0.34375 0.617418 0 0 1
-0.828125 0.351562 0.618812 0 0 1
-0.828125 0.359375 0.620224 0 0 1
-0.828125 0.367188 0.621659 0 0 1
-0.828125 0.375 0.623561 0 0 1
-0.828125 0.382812 0.625252 0 0 1
-0.828125 0.390625 0.626302 0 0 1
-0.828125 0.398438 0.626701 0 0 1
-0.828125 0.40625 0.625538 0 0 1
-0.828125 0.414062 0.623501 0 0 1
-0.828125 0.421875 0.620056 0 0 1
-0.828125 0.429688 0.609442 0 0 1
-0.820312 0.21875 0.566584 0 0 1
-0.820312 0.226562 0.585258 0 0 1
-0.820312 0.234375 0.595659 0 0 1
-0.820312 0.242188 0.60282 0 0 1
-0.820312 0.25 0.607565 0 0 1
-0.820312 0.257812 0.611155 0 0 1
-0.820312 0.265625 0.614466 0 0 1
-0.820312 0.273438 0.616868 0 0 1
-0.820312 0.28125 0.618831 0 0 1
-0.820312 0.289062 0.621035 0 0 1
-0.820312 0.296875 0.622877 0 0 1
-0.820312 0.304688 0.62431 0 0 1
-0.820312 0.3125 0.625064 0 0 1
-0.820312 0.320312 0.623836 0 0 1
-0.820312 0.328125 0.622653 0 0 1
-0.820312 0.335938 0.621469 0 0 1
-0.820312 0.34375 0.6203 0 0 1
-0.820312 0.351562 0.620318 0 0 1
-0.820312 0.359375 0.621116 0 0 1
-0.820312 0.367188 0.622688 0 0 1
-0.820312 0.375 0.624413 0 0 1
-0.820312 0.382812 0.626727 0 0 1
-0.820312 0.390625 0.629047 0 0 1
-0.820312 0.398438 0.630607 0 0 1
-0.820312 0.40625 0.631336 0 0 1
-0.820312 0.414062 0.631548 0 0 1
-0.820312 0.421875 0.629981 0 0 1
-0.820312 0.429688 0.6263 0 0 1
-0.820312 0.4375 0.619323 0 0 1
-0.8125 0.234375 0.583822 0 0 1
-0.8125 0.242188 0.594088 0 0 1
-0.8125 0.25 0.600811 0 0 1
-0.8125 0.257812 0.605183 0 0 1
-0.8125 0.265625 0.608731 0 0 1
-0.8125 0.273438 0.611731 0 0 1
-0.8125 0.28125 0.614498 0 0 1
-0.8125 0.289062 0.617143 0 0 1
-0.8125 0.296875 0.619574 0 0 1
-0.8125 0.304688 0.621761 0 0 1
-0.8125 0.3125 0.623182 0 0 1
-0.8125 0.320312 0.623964 0 0 1
-0.8125 0.328125 0.623964 0 0 1
-0.8125 0.335938 0.624299 0 0 1
-0.8125 0.34375 0.62402 0 0 1
-0.8125 0.351562 0.624312 0 0 1
-0.8125 0.359375 0.625451 0 0 1
-0.8125 0.367188 0.626625 0 0 1
-0.8125 0.375 0.628469 0 0 1
-0.8125 0.382812 0.630529 0 0 1
-0.8125 0.390625 0.632609 0 0 1
-0.8125 0.398438 0.63475 0 0 1
-0.8125 0.40625 0.636466 0 0 1
-0.8125 0.414062 0.63713 0 0 1
-0.8125 0.421875 0.63684 0 0 1
-0.8125 0.429688 0.635381 0 0 1
-0.8125 0.4375 0.631987 0 0 1
-0.8125 0.445312 0.626055 0 0 1
-0.8125 0.453125 0.614541 0 0 1
-0.804688 0.242188 0.582674 0 0 1
-0.804688 0.25 0.592467 0 0 1
-0.804688 0.257812 0.598179 0 0 1
-0.804688 0.265625 0.602569 0 0 1
-0.804688 0.273438 0.606377 0 0 1
-0.804688 0.28125 0.609788 0 0 1
-0.804688 0.289062 0.612684 0 0 1
-0.804688 0.296875 0.615814 0 0 1
-0.804688 0.304688 0.618632 0 0 1
-0.804688 0.3125 0.621186 0 0 1
-0.804688 0.320312 0.622893 0 0 1
-0.804688 0.328125 0.623844 0 0 1
-0.804688 0.335938 0.624864 0 0 1
-0.804688 0.34375 0.62575 0 0 1
-0.804688 0.351562 0.627267 0 0 1
-0.804688 0.359375 0.629107 0 0 1
-0.804688 0.367188 0.631222 0 0 1
-0.804688 0.375 0.633072 0 0 1
-0.804688 0.382812 0.634848 0 0 1
-0.804688 0.390625 0.637176 0 0 1
-0.804688 0.398438 0.639013 0 0 1
-0.804688 0.40625 0.640125 0 0 1
-0.804688 0.414062 0.641122 0 0 1
-0.804688 0.421875 0.641442 0 0 1
-0.804688 0.429688 0.641353 0 0 1
-0.804688 0.4375 0.639723 0 0 1
-0.804688 0.445312 0.636507 0 0 1
-0.804688 0.453125 0.631713 0 0 1
-0.804688 0.460938 0.622754 0 0 1
-0.796875 0.25 0.570981 0 0 1
-0.796875 0.257812 0.588829 0 0 1
-0.796875 0.265625 0.59526 0 0 1
-0.796875 0.273438 0.600152 0 0 1
-0.796875 0.28125 0.604479 0 0 1
-0.796875 0.289062 0.608511 0 0 1
-0.796875 0.296875 0.611182 0 0 1
-0.796875 0.304688 0.614631 0 0 1
-0.796875 0.3125 0.617934 0 0 1
-0.796875 0.320312 0.62067 0 0 1
-0.796875 0.328125 0.622467 0 0 1
-0.796875 0.335938 0.62407 0 0 1
-0.796875 0.34375 0.626028 0 0 1
-0.796875 0.351562 0.628027 0 0 1
-0.796875 0.359375 0.630622 0 0 1
-0.796875 0.367188 0.632809 0 0 1
-0.796875 0.375 0.635188 0 0 1
-0.796875 0.382812 0.637247 0 0 1
-0.796875 0.390625 0.639245 0 0 1
-0.796875 0.398438 0.641238 0 0 1
-0.796875 0.40625 0.642658 0 0 1
-0.796875 0.414062 0.643996 0 0 1
-0.796875 0.421875 0.644513 0 0 1
-0.796875 0.429688 0.644622 0 0 1
-0.796875 0.4375 0.643867 0 0 1
-0.796875 0.445312 0.642466 0 0 1
-0.796875 0.453125 0.640127 0 0 1
-0.796875 0.460938 0.635426 0 0 1
-0.796875 0.46875 0.627561 0 0 1
-0.796875 0.476562 0.610203 0 0 1
-0.789062 0.265625 0.583192 0 0 1
-0.789062 0.273438 0.591884 0 0 1
-0.789062 0.28125 0.597254 0 0 1
-0.789062 0.289062 0.601963 0 0 1
-0.789062 0.296875 0.605881 0 0 1
-0.789062 0.304688 0.609799 0 0 1
-0.789062 0.3125 0.613453 0 0 1
-0.789062 0.320312 0.616789 0 0 1
-0.789062 0.328125 0.619544 0 0 1
-0.789062 0.335938 0.62212 0 0 1
-0.789062 0.34375 0.624582 0 0 1
-0.789062 0.351562 0.627266 0 0 1
-0.789062 0.359375 0.630088 0 0 1
-0.789062 0.367188 0.632763 0 0 1
-0.789062 0.375 0.63549 0 0 1
-0.789062 0.382812 0.637799 0 0 1
-0.789062 0.390625 0.639717 0 0 1
-0.789062 0.398438 0.642292 0 0 1
-0.789062 0.40625 0.643827 0 0 1
-0.789062 0.414062 0.64544 0 0 1
-0.789062 0.421875 0.646638 0 0 1
-0.789062 0.429688 0.646771 0 0 1
-0.789062 0.4375 0.646451 0 0 1
-0.789062 0.445312 0.645801 0 0 1
-0.789062 0.453125 0.644591 0 0 1
-0.789062 0.460938 0.64259 0 0 1
-0.789062 0.46875 0.63839 0 0 1
-0.789062 0.476562 0.631484 0 0 1
-0.789062 0.484375 0.620409 0 0 1
-0.78125 0.28125 0.586421 0 0 1
-0.78125 0.289062 0.59364 0 0 1
-0.78125 0.296875 0.598889 0 0 1
-0.78125 0.304688 0.603577 0 0 1
-0.78125 0.3125 0.607957 0 0 1
-0.78125 0.320312 0.611865 0 0 1
-0.78125 0.328125 0.615397 0 0 1
-0.78125 0.335938 0.61857 0 0 1
-0.78125 0.34375 0.621875 0 0 1
-0.78125 0.351562 0.625043 0 0 1
-0.78125 0.359375 0.628083 0 0 1
-0.78125 0.367188 0.631186 0 0 1
-0.78125 0.375 0.634073 0 0 1
-0.78125 0.382812 0.636893 0 0 1
-0.78125 0.390625 0.639828 0 0 1
-0.78125 0.398438 0.641975 0 0 1
-0.78125 0.40625 0.644209 0 0 1
-0.78125 0.414062 0.645622 0 0 1
-0.78125 0.421875 0.647053 0 0 1
-0.78125 0.429688 0.647866 0 0 1
-0.78125 0.4375 0.648574 0 0 1
-0.78125 0.445312 0.648176 0 0 1
-0.78125 0.453125 0.647596 0 0 1
-0.78125 0.460938 0.646511 0 0 1
-0.78125 0.46875 0.644785 0 0 1
-0.78125 0.476562 0.641687 0 0 1
-0.78125 0.484375 0.635638 0 0 1
-0.78125 0.492188 0.625963 0 0 1
-0.773438 0.289062 0.575611 0 0 1
-0.773438 0.296875 0.588091 0 0 1
-0.773438 0.304688 0.594404 0 0 1
-0.773438 0.3125 0.599811 0 0 1
-0.773438 0.320312 0.605116 0 0 1
-0.773438 0.328125 0.609715 0 0 1
-0.773438 0.335938 0.613729 0 0 1
-0.773438 0.34375 0.617668 0 0 1
-0.773438 0.351562 0.621413 0 0 1
-0.773438 0.359375 0.62504 0 0 1
-0.773438 0.367188 0.628605 0 0 1
-0.773438 0.375 0.631854 0 0 1
-0.773438 0.382812 0.635068 0 0 1
-0.773438 0.390625 0.638409 0 0 1
-0.773438 0.398438 0.641004 0 0 1
-0.773438 0.40625 0.643305 0 0 1
-0.773438 0.414062 0.64542 0 0 1
-0.773438 0.421875 0.647128 0 0 1
-0.773438 0.429688 0.648307 0 0 1
-0.773438 0.4375 0.649472 0 0 1
-0.773438 0.445312 0.649616 0 0 1
-0.773438 0.453125 0.649516 0 0 1
-0.773438 0.460938 0.648868 0 0 1
-0.773438 0.46875 0.648004 0 0 1
-0.773438 0.476562 0.646568 0 0 1
-0.773438 0.484375 0.644263 0 0 1
-0.773438 0.492188 0.639326 0 0 1
-0.773438 0.5 0.631218 0 0 1
-0.773438 0.507812 0.617339 0 0 1
-0.765625 0.304688 0.579658 0 0 1
-0.765625 0.3125 0.588774 0 0 1
-0.765625 0.320312 0.595284 0 0 1
-0.765625 0.328125 0.601884 0 0 1
-0.765625 0.335938 0.607112 0 0 1
-0.765625 0.34375 0.611897 0 0 1
-0.765625 0.351562 0.616363 0 0 1
-0.765625 0.359375 0.620602 0 0 1
-0.765625 0.367188 0.624826 0 0 1
-0.765625 0.375 0.628533 0 0 1
-0.765625 0.382812 0.632055 0 0 1
-0.765625 0.390625 0.635558 0 0 1
-0.765625 0.398438 0.638443 0 0 1
-0.765625 0.40625 0.641416 0 0 1
-0.765625 0.414062 0.643824 0 0 1
-0.765625 0.421875 0.646189 0 0 1
-0.765625 0.429688 0.647694 0 0 1
-0.765625 0.4375 0.648713 0 0 1
-0.765625 0.445312 0.649786 0 0 1
-0.765625 0.453125 0.650464 0 0 1
-0.765625 0.460938 0.650463 0 0 1
-0.765625 0.46875 0.649869 0 0 1
-0.765625 0.476562 0.649114 0 0 1
-0.765625 0.484375 0.648001 0 0 1
-0.765625 0.492188 0.646058 0 0 1
-0.765625 0.5 0.642769 0 0 1
-0.765625 0.507812 0.636638 0 0 1
-0.765625 0.515625 0.626179 0 0 1
-0.765625 0.523438 0.608815 0 0 1
-0.757812 0.320312 0.582563 0 0 1
-0.757812 0.328125 0.590445 0 0 1
-0.757812 0.335938 0.598201 0 0 1
-0.757812 0.34375 0.604526 0 0 1
-0.757812 0.351562 0.609947 0 0 1
-0.757812 0.359375 0.614853 0 0 1
-0.757812 0.367188 0.619691 0 0 1
-0.757812 0.375 0.624 0 0 1
-0.757812 0.382812 0.628297 0 0 1
-0.757812 0.390625 0.631948 0 0 1
-0.757812 0.398438 0.635395 0 0 1
-0.757812 0.40625 0.638537 0 0 1
-0.757812 0.414062 0.641673 0 0 1
-0.757812 0.421875 0.644103 0 0 1
-0.757812 0.429688 0.645855 0 0 1
-0.757812 0.4375 0.647715 0 0 1
-0.757812 0.445312 0.648895 0 0 1
-0.757812 0.453125 0.649945 0 0 1
-0.757812 0.460938 0.650528 0 0 1
-0.757812 0.46875 0.650897 0 0 1
-0.757812 0.476562 0.650689 0 0 1
-0.757812 0.484375 0.649699 0 0 1
-0.757812 0.492188 0.649056 0 0 1
-0.757812 0.5 0.648016 0 0 1
-0.757812 0.507812 0.645942 0 0 1
-0.757812 0.515625 0.640916 0 0 1
-0.757812 0.523438 0.633108 0 0 1
-0.757812 0.53125 0.621977 0 0 1
-0.757812 0.539062 0.606476 0 0 1
-0.75 0.328125 0.571977 0 0 1
-0.75 0.335938 0.586063 0 0 1
-0.75 0.34375 0.594781 0 0 1
-0.75 0.351562 0.602305 0 0 1
-0.75 0.359375 0.608077 0 0 1
-0.75 0.367188 0.613723 0 0 1
-0.75 0.375 0.618597 0 0 1
-0.75 0.382812 0.623233 0 0 1
-0.75 0.390625 0.627547 0 0 1
-0.75 0.398438 0.631508 0 0 1
-0.75 0.40625 0.635313 0 0 1
-0.75 0.414062 0.638607 0 0 1
-0.75 0.421875 0.641308 0 0 1
-0.75 0.429688 0.643759 0 0 1
-0.75 0.4375 0.645741 0 0 1
-0.75 0.445312 0.647578 0 0 1
-0.75 0.453125 0.6487 0 0 1
-0.75 0.460938 0.649765 0 0 1
-0.75 0.46875 0.650513 0 0 1
-0.75 0.476562 0.650961 0 0 1
-0.75 0.484375 0.651038 0 0 1
-0.75 0.492188 0.650972 0 0 1
-0.75 0.5 0.650573 0 0 1
-0.75 0.507812 0.649542 0 0 1
-0.75 0.515625 0.648128 0 0 1
-0.75 0.523438 0.644809 0 0 1
-0.75 0.53125 0.639473 0 0 1
-0.75 0.539062 0.631215 0 0 1
-0.75 0.546875 0.622414 0 0 1
-0.75 0.554688 0.615939 0 0 1
-0.742188 0.335938 0.565484 0 0 1
-0.742188 0.34375 0.581239 0 0 1
-0.742188 0.351562 0.591857 0 0 1
-0.742188 0.359375 0.599392 0 0 1
-0.742188 0.367188 0.606268 0 0 1
-0.742188 0.375 0.612295 0 0 1
-0.742188 0.382812 0.617409 0 0 1
-0.742188 0.390625 0.622306 0 0 1
-0.742188 0.398438 0.626766 0 0 1
-0.742188 0.40625 0.6309 0 0 1
-0.742188 0.414062 0.634679 0 0 1
-0.742188 0.421875 0.637769 0 0 1
-0.742188 0.429688 0.640436 0 0 1
-0.742188 0.4375 0.642716 0 0 1
-0.742188 0.445312 0.644919 0 0 1
-0.742188 0.453125 0.646654 0 0 1
-0.742188 0.460938 0.648161 0 0 1
-0.742188 0.46875 0.649493 0 0 1
-0.742188 0.476562 0.650492 0 0 1
-0.742188 0.484375 0.651413 0 0 1
-0.742188 0.492188 0.651775 0 0 1
-0.742188 0.5 0.6519 0 0 1
-0.742188 0.507812 0.65157 0 0 1
-0.742188 0.515625 0.650905 0 0 1
-0.742188 0.523438 0.649899 0 0 1
-0.742188 0.53125 0.648006 0 0 1
-0.742188 0.539062 0.644484 0 0 1
-0.742188 0.546875 0.639136 0 0 1
-0.742188 0.554688 0.633715 0 0 1
-0.742188 0.5625 0.63004 0 0 1
-0.742188 0.570312 0.626996 0 0 1
-0.742188 0.578125 0.623935 0 0 1
-0.742188 0.585938 0.617604 0 0 1
-0.734375 0.351562 0.578316 0 0 1
-0.734375 0.359375 0.588792 0 0 1
-0.734375 0.367188 0.597316 0 0 1
-0.734375 0.375 0.604531 0 0 1
-0.734375 0.382812 0.61059 0 0 1
-0.734375 0.390625 0.616068 0 0 1
-0.734375 0.398438 0.621028 0 0 1
-0.734375 0.40625 0.625587 0 0 1
-0.734375 0.414062 0.629808 0 0 1
-0.734375 0.421875 0.633239 0 0 1
-0.734375 0.429688 0.636185 0 0 1
-0.734375 0.4375 0.639026 0 0 1
-0.734375 0.445312 0.641549 0 0 1
-0.734375 0.453125 0.643995 0 0 1
-0.734375 0.460938 0.646031 0 0 1
-0.734375 0.46875 0.647658 0 0 1
-0.734375 0.476562 0.649541 0 0 1
-0.734375 0.484375 0.650693 0 0 1
-0.734375 0.492188 0.651478 0 0 1
-0.734375 0.5 0.652036 0 0 1
-0.734375 0.507812 0.652459 0 0 1
-0.734375 0.515625 0.65261 0 0 1
-0.734375 0.523438 0.652147 0 0 1
-0.734375 0.53125 0.651706 0 0 1
-0.734375 0.539062 0.650552 0 0 1
-0.734375 0.546875 0.648147 0 0 1
-0.734375 0.554688 0.645289 0 0 1
-0.734375 0.5625 0.642333 0 0 1
-0.734375 0.570312 0.6401 0 0 1
-0.734375 0.578125 0.638294 0 0 1
-0.734375 0.585938 0.637045 0 0 1
-0.734375 0.59375 0.635438 0 0 1
-0.734375 0.601562 0.633268 0 0 1
-0.734375 0.609375 0.63015 0 0 1
-0.734375 0.617188 0.623573 0 0 1
-0.726562 0.359375 0.576304 0 0 1
-0.726562 0.367188 0.586534 0 0 1
-0.726562 0.375 0.595793 0 0 1
-0.726562 0.382812 0.603065 0 0 1
-0.726562 0.390625 0.608833 0 0 1
-0.726562 0.398438 0.614303 0 0 1
-0.726562 0.40625 0.619386 0 0 1
-0.726562 0.414062 0.623964 0 0 1
-0.726562 0.421875 0.627961 0 0 1
-0.726562 0.429688 0.631524 0 0 1
-0.726562 0.4375 0.634884 0 0 1
-0.726562 0.445312 0.637967 0 0 1
-0.726562 0.453125 0.640657 0 0 1
-0.726562 0.460938 0.64307 0 0 1
-0.726562 0.46875 0.645397 0 0 1
-0.726562 0.476562 0.64756 0 0 1
-0.726562 0.484375 0.64904 0 0 1
-0.726562 0.492188 0.65041 0 0 1
-0.726562 0.5 0.651562 0 0 1
-0.726562 0.507812 0.652333 0 0 1
-0.726562 0.515625 0.652965 0 0 1
-0.726562 0.523438 0.653315 0 0 1
-0.726562 0.53125 0.653313 0 0 1
-0.726562 0.539062 0.653044 0 0 1
-0.726562 0.546875 0.65267 0 0 1
-0.726562 0.554688 0.651585 0 0 1
-0.726562 0.5625 0.64957 0 0 1
-0.726562 0.570312 0.648103 0 0 1
-0.726562 0.578125 0.646817 0 0 1
-0.726562 0.585938 0.645927 0 0 1
-0.726562 0.59375 0.645157 0 0 1
-0.726562 0.601562 0.644484 0 0 1
-0.726562 0.609375 0.643433 0 0 1
-0.726562 0.617188 0.642135 0 0 1
-0.726562 0.625 0.639918 0 0 1
-0.726562 0.632812 0.637055 0 0 1
-0.726562 0.640625 0.629738 0 0 1
-0.71875 0.367188 0.572547 0 0 1
-0.71875 0.375 0.584407 0 0 1
-0.71875 0.382812 0.593852 0 0 1
-0.71875 0.390625 0.600976 0 0 1
-0.71875 0.398438 0.606713 0 0 1
-0.71875 0.40625 0.612273 0 0 1
-0.71875 0.414062 0.617319 0 0 1
-0.71875 0.421875 0.621881 0 0 1
-0.71875 0.429688 0.626002 0 0 1
-0.71875 0.4375 0.630009 0 0 1
-0.71875 0.445312 0.633628 0 0 1
-0.71875 0.453125 0.636837 0 0 1
-0.71875 0.460938 0.639518 0 0 1
-0.71875 0.46875 0.642339 0 0 1
-0.71875 0.476562 0.644729 0 0 1
-0.71875 0.484375 0.646939 0 0 1
-0.71875 0.492188 0.648716 0 0 1
-0.71875 0.5 0.649982 0 0 1
-0.71875 0.507812 0.651473 0 0 1
-0.71875 0.515625 0.652603 0 0 1
-0.71875 0.523438 0.653238 0 0 1
-0.71875 0.53125 0.653687 0 0 1
-0.71875 0.539062 0.654178 0 0 1
-0.71875 0.546875 0.654478 0 0 1
-0.71875 0.554688 0.654484 0 0 1
-0.71875 0.5625 0.654024 0 0 1
-0.71875 0.570312 0.653463 0 0 1
-0.71875 0.578125 0.652733 0 0 1
-0.71875 0.585938 0.651985 0 0 1
-0.71875 0.59375 0.651746 0 0 1
-0.71875 0.601562 0.651249 0 0 1
-0.71875 0.609375 0.651249 0 0 1
-0.71875 0.617188 0.65038 0 0 1
-0.71875 0.625 0.649897 0 0 1
-0.71875 0.632812 0.64855 0 0 1
-0.71875 0.640625 0.647076 0 0 1
-0.71875 0.648438 0.645143 0 0 1
-0.71875 0.65625 0.642173 0 0 1
-0.71875 0.664062 0.632886 0 0 1
-0.710938 0.375 0.567737 0 0 1
-0.710938 0.382812 0.582069 0 0 1
-0.710938 0.390625 0.590953 0 0 1
-0.710938 0.398438 0.598529 0 0 1
-0.710938 0.40625 0.604526 0 0 1
-0.710938 0.414062 0.609911 0 0 1
-0.710938 0.421875 0.615151 0 0 1
-0.710938 0.429688 0.620023 0 0 1
-0.710938 0.4375 0.624102 0 0 1
-0.710938 0.445312 0.628306 0 0 1
-0.710938 0.453125 0.632087 0 0 1
-0.710938 0.460938 0.635536 0 0 1
-0.710938 0.46875 0.638553 0 0 1
-0.710938 0.476562 0.641446 0 0 1
-0.710938 0.484375 0.643965 0 0 1
-0.710938 0.492188 0.646215 0 0 1
-0.710938 0.5 0.647947 0 0 1
-0.710938 0.507812 0.649772 0 0 1
-0.710938 0.515625 0.651584 0 0 1
-0.710938 0.523438 0.652524 0 0 1
-0.710938 0.53125 0.653413 0 0 1
-0.710938 0.539062 0.654255 0 0 1
-0.710938 0.546875 0.654992 0 0 1
-0.710938 0.554688 0.655502 0 0 1
-0.710938 0.5625 0.655984 0 0 1
-0.710938 0.570312 0.656209 0 0 1
-0.710938 0.578125 0.656251 0 0 1
-0.710938 0.585938 0.656137 0 0 1
-0.710938 0.59375 0.656095 0 0 1
-0.710938 0.601562 0.656334 0 0 1
-0.710938 0.609375 0.656333 0 0 1
-0.710938 0.617188 0.656425 0 0 1
-0.710938 0.625 0.656706 0 0 1
-0.710938 0.632812 0.656454 0 0 1
-0.710938 0.640625 0.655996 0 0 1
-0.710938 0.648438 0.65521 0 0 1
-0.710938 0.65625 0.653917 0 0 1
-0.710938 0.664062 0.652323 0 0 1
-0.710938 0.671875 0.649821 0 0 1
-0.710938 0.679688 0.644206 0 0 1
-0.703125 0.382812 0.565512 0 0 1
-0.703125 0.390625 0.579495 0 0 1
-0.703125 0.398438 0.588825 0 0 1
-0.703125 0.40625 0.595719 0 0 1
-0.703125 0.414062 0.602099 0 0 1
-0.703125 0.421875 0.607797 0 0 1
-0.703125 0.429688 0.613177 0 0 1
-0.703125 0.4375 0.617823 0 0 1
-0.703125 0.445312 0.622668 0 0 1
-0.703125 0.453125 0.626871 0 0 1
-0.703125 0.460938 0.630879 0 0 1
-0.703125 0.46875 0.634174 0 0 1
-0.703125 0.476562 0.637382 0 0 1
-0.703125 0.484375 0.640551 0 0 1
-0.703125 0.492188 0.643368 0 0 1
-0.703125 0.5 0.645566 0 0 1
-0.703125 0.507812 0.647611 0 0 1
-0.703125 0.515625 0.649527 0 0 1
-0.703125 0.523438 0.651119 0 0 1
-0.703125 0.53125 0.652623 0 0 1
-0.703125 0.539062 0.65377 0 0 1
-0.703125 0.546875 0.654553 0 0 1
-0.703125 0.554688 0.655385 0 0 1
-0.703125 0.5625 0.656494 0 0 1
-0.703125 0.570312 0.657523 0 0 1
-0.703125 0.578125 0.658269 0 0 1
-0.703125 0.585938 0.658744 0 0 1
-0.703125 0.59375 0.659229 0 0 1
-0.703125 0.601562 0.659816 0 0 1
-0.703125 0.609375 0.6603 0 0 1
-0.703125 0.617188 0.660856 0 0 1
-0.703125 0.625 0.661648 0 0 1
-0.703125 0.632812 0.662199 0 0 1
-0.703125 0.640625 0.662498 0 0 1
-0.703125 0.648438 0.662588 0 0 1
-0.703125 0.65625 0.662484 0 0 1
-0.703125 0.664062 0.661442 0 0 1
-0.703125 0.671875 0.659971 0 0 1
-0.703125 0.679688 0.657839 0 0 1
-0.703125 0.6875 0.654938 0 0 1
-0.703125 0.695312 0.650027 0 0 1
-0.703125 0.703125 0.638617 0 0 1
-0.695312 0.390625 0.557797 0 0 1
-0.695312 0.398438 0.57689 0 0 1
-0.695312 0.40625 0.586304 0 0 1
-0.695312 0.414062 0.593534 0 0 1
-0.695312 0.421875 0.599914 0 0 1
-0.695312 0.429688 0.605983 0 0 1
-0.695312 0.4375 0.611122 0 0 1
-0.695312 0.445312 0.615996 0 0 1
-0.695312 0.453125 0.620606 0 0 1
-0.695312 0.460938 0.625235 0 0 1
-0.695312 0.46875 0.629366 0 0 1
-0.695312 0.476562 0.632921 0 0 1
-0.695312 0.484375 0.636363 0 0 1
-0.695312 0.492188 0.639694 0 0 1
-0.695312 0.5 0.642415 0 0 1
-0.695312 0.507812 0.644784 0 0 1
-0.695312 0.515625 0.647051 0 0 1
-0.695312 0.523438 0.649077 0 0 1
-0.695312 0.53125 0.650786 0 0 1
-0.695312 0.539062 0.652322 0 0 1
-0.695312 0.546875 0.653523 0 0 1
-0.695312 0.554688 0.655061 0 0 1
-0.695312 0.5625 0.656427 0 0 1
-0.695312 0.570312 0.657661 0 0 1
-0.695312 0.578125 0.65887 0 0 1
-0.695312 0.585938 0.659971 0 0 1
-0.695312 0.59375 0.661128 0 0 1
-0.695312 0.601562 0.661958 0 0 1
-0.695312 0.609375 0.662877 0 0 1
-0.695312 0.617188 0.663957 0 0 1
-0.695312 0.625 0.66543 0 0 1
-0.695312 0.632812 0.666376 0 0 1
-0.695312 0.640625 0.667441 0 0 1
-0.695312 0.648438 0.668267 0 0 1
-0.695312 0.65625 0.668657 0 0 1
-0.695312 0.664062 0.668298 0 0 1
-0.695312 0.671875 0.667778 0 0 1
-0.695312 0.679688 0.666371 0 0 1
-0.695312 0.6875 0.663982 0 0 1
-0.695312 0.695312 0.661528 0 0 1
-0.695312 0.703125 0.658617 0 0 1
-0.695312 0.710938 0.653531 0 0 1
-0.695312 0.71875 0.639683 0 0 1
-0.6875 0.40625 0.571974 0 0 1
-0.6875 0.414062 0.583892 0 0 1
-0.6875 0.421875 0.591439 0 0 1
-0.6875 0.429688 0.597863 0 0 1
-0.6875 0.4375 0.603662 0 0 1
-0.6875 0.445312 0.608885 0 0 1
-0.6875 0.453125 0.61391 0 0 1
-0.6875 0.460938 0.618847 0 0 1
-0.6875 0.46875 0.623318 0 0 1
-0.6875 0.476562 0.62766 0 0 1
-0.6875 0.484375 0.631402 0 0 1
-0.6875 0.492188 0.635202 0 0 1
-0.6875 0.5 0.63844 0 0 1
-0.6875 0.507812 0.641462 0 0 1
-0.6875 0.515625 0.64414 0 0 1
-0.6875 0.523438 0.646548 0 0 1
-0.6875 0.53125 0.648716 0 0 1
-0.6875 0.539062 0.650818 0 0 1
-0.6875 0.546875 0.652279 0 0 1
-0.6875 0.554688 0.65385 0 0 1
-0.6875 0.5625 0.655407 0 0 1
-0.6875 0.570312 0.656967 0 0 1
-0.6875 0.578125 0.658501 0 0 1
-0.6875 0.585938 0.660208 0 0 1
-0.6875 0.59375 0.661732 0 0 1
-0.6875 0.601562 0.663168 0 0 1
-0.6875 0.609375 0.664451 0 0 1
-0.6875 0.617188 0.666004 0 0 1
-0.6875 0.625 0.667677 0 0 1
-0.6875 0.632812 0.669456 0 0 1
-0.6875 0.640625 0.670428 0 0 1
-0.6875 0.648438 0.672031 0 0 1
-0.6875 0.65625 0.67297 0 0 1
-0.6875 0.664062 0.673293 0 0 1
-0.6875 0.671875 0.67328 0 0 1
-0.6875 0.679688 0.6727 0 0 1
-0.6875 0.6875 0.67158 0 0 1
-0.6875 0.695312 0.669845 0 0 1
-0.6875 0.703125 0.667101 0 0 1
-0.6875 0.710938 0.663803 0 0 1
-0.6875 0.71875 0.659672 0 0 1
-0.6875 0.726562 0.65364 0 0 1
-0.679688 0.414062 0.567196 0 0 1
-0.679688 0.421875 0.581413 0 0 1
-0.679688 0.429688 0.589474 0 0 1
-0.679688 0.4375 0.596053 0 0 1
-0.679688 0.445312 0.60177 0 0 1
-0.679688 0.453125 0.607136 0 0 1
-0.679688 0.460938 0.611978 0 0 1
-0.679688 0.46875 0.616745 0 0 1
-0.679688 0.476562 0.621736 0 0 1
-0.679688 0.484375 0.625885 0 0 1
-0.679688 0.492188 0.630046 0 0 1
-0.679688 0.5 0.63401 0 0 1
-0.679688 0.507812 0.637702 0 0 1
-0.679688 0.515625 0.641092 0 0 1
-0.679688 0.523438 0.643875 0 0 1
-0.679688 0.53125 0.646309 0 0 1
-0.679688 0.539062 0.648577 0 0 1
-0.679688 0.546875 0.650425 0 0 1
-0.679688 0.554688 0.652277 0 0 1
-0.679688 0.5625 0.654118 0 0 1
-0.679688 0.570312 0.655838 0 0 1
-0.679688 0.578125 0.657665 0 0 1
-0.679688 0.585938 0.659437 0 0 1
-0.679688 0.59375 0.661198 0 0 1
-0.679688 0.601562 0.663057 0 0 1
-0.679688 0.609375 0.665053 0 0 1
-0.679688 0.617188 0.667075 0 0 1
-0.679688 0.625 0.669277 0 0 1
-0.679688 0.632812 0.671255 0 0 1
-0.679688 0.640625 0.672752 0 0 1
-0.679688 0.648438 0.674617 0 0 1
-0.679688 0.65625 0.675936 0 0 1
-0.679688 0.664062 0.67689 0 0 1
-0.679688 0.671875 0.677261 0 0 1
-0.679688 0.679688 0.677391 0 0 1
-0.679688 0.6875 0.677019 0 0 1
-0.679688 0.695312 0.676069 0 0 1
-0.679688 0.703125 0.674227 0 0 1
-0.679688 0.710938 0.671765 0 0 1
-0.679688 0.71875 0.668086 0 0 1
-0.679688 0.726562 0.663978 0 0 1
-0.679688 0.734375 0.659498 0 0 1
-0.679688 0.742188 0.651192 0 0 1
-0.671875 0.421875 0.563159 0 0 1
-0.671875 0.429688 0.579475 0 0 1
-0.671875 0.4375 0.587575 0 0 1
-0.671875 0.445312 0.594172 0 0 1
-0.671875 0.453125 0.599972 0 0 1
-0.671875 0.460938 0.605076 0 0 1
-0.671875 0.46875 0.609841 0 0 1
-0.671875 0.476562 0.615156 0 0 1
-0.671875 0.484375 0.619755 0 0 1
-0.671875 0.492188 0.624418 0 0 1
-0.671875 0.5 0.628702 0 0 1
-0.671875 0.507812 0.632944 0 0 1
-0.671875 0.515625 0.636847 0 0 1
-0.671875 0.523438 0.640259 0 0 1
-0.671875 0.53125 0.643324 0 0 1
-0.671875 0.539062 0.64596 0 0 1
-0.671875 0.546875 0.648281 0 0 1
-0.671875 0.554688 0.650411 0 0 1
-0.671875 0.5625 0.652403 0 0 1
-0.671875 0.570312 0.654446 0 0 1
-0.671875 0.578125 0.656242 0 0 1
-0.671875 0.585938 0.658034 0 0 1
-0.671875 0.59375 0.660082 0 0 1
-0.671875 0.601562 0.66225 0 0 1
-0.671875 0.609375 0.664796 0 0 1
-0.671875 0.617188 0.667321 0 0 1
-0.671875 0.625 0.670002 0 0 1
-0.671875 0.632812 0.672261 0 0 1
-0.671875 0.640625 0.674647 0 0 1
-0.671875 0.648438 0.676522 0 0 1
-0.671875 0.65625 0.678117 0 0 1
-0.671875 0.664062 0.67921 0 0 1
-0.671875 0.671875 0.679863 0 0 1
-0.671875 0.679688 0.68033 0 0 1
-0.671875 0.6875 0.680316 0 0 1
-0.671875 0.695312 0.679704 0 0 1
-0.671875 0.703125 0.678959 0 0 1
-0.671875 0.710938 0.677343 0 0 1
-0.671875 0.71875 0.67465 0 0 1
-0.671875 0.726562 0.671192 0 0 1
-0.671875 0.734375 0.667247 0 0 1
-0.671875 0.742188 0.662702 0 0 1
-0.671875 0.75 0.656024 0 0 1
-0.664062 0.429688 0.560318 0 0 1
-0.664062 0.4375 0.577238 0 0 1
-0.664062 0.445312 0.585778 0 0 1
-0.664062 0.453125 0.592258 0 0 1
-0.664062 0.460938 0.597685 0 0 1
-0.664062 0.46875 0.603028 0 0 1
-0.664062 0.476562 0.608478 0 0 1
-0.664062 0.484375 0.613436 0 0 1
-0.664062 0.492188 0.618257 0 0 1
-0.664062 0.5 0.623003 0 0 1
-0.664062 0.507812 0.627489 0 0 1
-0.664062 0.515625 0.631877 0 0 1
-0.664062 0.523438 0.636056 0 0 1
-0.664062 0.53125 0.639608 0 0 1
-0.664062 0.539062 0.642831 0 0 1
-0.664062 0.546875 0.645621 0 0 1
-0.664062 0.554688 0.64805 0 0 1
-0.664062 0.5625 0.650516 0 0 1
-0.664062 0.570312 0.652563 0 0 1
-0.664062 0.578125 0.654501 0 0 1
-0.664062 0.585938 0.656341 0 0 1
-0.664062 0.59375 0.658316 0 0 1
-0.664062 0.601562 0.660617 0 0 1
-0.664062 0.609375 0.66353 0 0 1
-0.664062 0.617188 0.666744 0 0 1
-0.664062 0.625 0.669958 0 0 1
-0.664062 0.632812 0.673044 0 0 1
-0.664062 0.640625 0.675658 0 0 1
-0.664062 0.648438 0.677933 0 0 1
-0.664062 0.65625 0.679885 0 0 1
-0.664062 0.664062 0.681134 0 0 1
-0.664062 0.671875 0.681977 0 0 1
-0.664062 0.679688 0.682448 0 0 1
-0.664062 0.6875 0.682707 0 0 1
-0.664062 0.695312 0.68242 0 0 1
-0.664062 0.703125 0.681686 0 0 1
-0.664062 0.710938 0.68059 0 0 1
-0.664062 0.71875 0.678916 0 0 1
-0.664062 0.726562 0.676538 0 0 1
-0.664062 0.734375 0.673352 0 0 1
-0.664062 0.742188 0.669252 0 0 1
-0.664062 0.75 0.664077 0 0 1
-0.664062 0.757812 0.657547 0 0 1
-0.664062 0.765625 0.640563 0 0 1
