-0.328399 0.422163 0.695953 0 0 1
-0.329745 0.419339 0.698204 0 0 1
-0.330167 0.42049 0.696639 0 0 1
-0.330759 0.412101 0.696851 0 0 1
-0.332342 0.40887 0.694325 0 0 1
-0.329131 0.412577 0.693582 0 0 1
-0.326449 0.414114 0.693165 0 0 1
-0.325296 0.415247 0.693343 0 0 1
-0.323732 0.410983 0.692592 0 0 1
-0.324733 0.408384 0.695052 0 0 1
-0.326309 0.409324 0.695612 0 0 1
-0.326616 0.412857 0.695064 0 0 1
-0.326048 0.417119 0.693288 0 0 1
-0.324847 0.421121 0.691973 0 0 1
-0.324218 0.428733 0.689904 0 0 1
-0.324575 0.441013 0.684986 0 0 1
-0.323839 0.453043 0.679561 0 0 1
-0.320574 0.468949 0.674628 0 0 1
-0.317222 0.486704 0.67139 0 0 1
-0.313885 0.499745 0.667959 0 0 1
-0.312412 0.505467 0.665424 0 0 1
-0.312947 0.502993 0.666867 0 0 1
-0.3158 0.492634 0.670331 0 0 1
-0.319749 0.481818 0.676051 0 0 1
-0.32033 0.490645 0.683397 0 0 1
-0.315778 0.515836 0.684159 0 0 1
-0.311038 0.539696 0.663961 0 0 1
-0.349015 -0.56222 0.514428 0 0 1
-0.349084 -0.559825 0.518177 0 0 1
-0.348798 -0.560898 0.517904 0 0 1
-0.341967 -0.564319 0.510399 0 0 1
-0.332759 -0.56982 0.493649 0 0 1
-0.315809 -0.577099 0.466009 0 0 1
-0.30526 -0.582242 0.445565 0 0 1
-0.302631 -0.584559 0.445157 0 0 1
-0.299832 -0.585249 0.445287 0 0 1
-0.297086 -0.58404 0.446398 0 0 1
-0.293793 -0.582694 0.447313 0 0 1
-0.291587 -0.582392 0.448561 0 0 1
-0.290826 -0.584088 0.448008 0 0 1
-0.290959 -0.588197 0.447768 0 0 1
-0.291354 -0.58986 0.446763 0 0 1
-0.291141 -0.588041 0.447871 0 0 1
-0.290981 -0.584224 0.44765 0 0 1
-0.290736 -0.578508 0.448697 0 0 1
-0.290917 -0.571469 0.449591 0 0 1
-0.290689 -0.565301 0.450307 0 0 1
-0.28912 -0.560371 0.45227 0 0 1
-0.286189 -0.554891 0.454561 0 0 1
-0.281394 -0.54641 0.459367 0 0 1
-0.278748 -0.537671 0.472358 0 0 1
-0.281257 -0.530286 0.495553 0 0 1
-0.293142 -0.523328 0.527193 0 0 1
-0.305695 -0.51147 0.546325 0 0 1
-0.313133 -0.500893 0.553551 0 0 1
-0.313486 -0.494771 0.554727 0 0 1
-0.312697 -0.492619 0.555678 0 0 1
-0.314737 -0.489289 0.556472 0 0 1
-0.315619 -0.486765 0.557411 0 0 1
-0.315953 -0.482586 0.559947 0 0 1
-0.316065 -0.477076 0.563675 0 0 1
-0.314629 -0.474303 0.566012 0 0 1
-0.301067 -0.476113 0.553705 0 0 1
-0.275739 -0.46951 0.527008 0 0 1
-0.26424 -0.461931 0.519948 0 0 1
-0.261435 -0.451769 0.529728 0 0 1
-0.270662 -0.444645 0.549752 0 0 1
-0.303959 -0.433253 0.582713 0 0 1
-0.316402 -0.419929 0.588866 0 0 1
-0.320034 -0.409217 0.591189 0 0 1
-0.321397 -0.403987 0.592516 0 0 1
-0.321654 -0.403427 0.592168 0 0 1
-0.322127 -0.405895 0.591255 0 0 1
-0.321935 -0.406429 0.590338 0 0 1
-0.322973 -0.402558 0.591488 0 0 1
-0.324963 -0.393391 0.592632 0 0 1
-0.326634 -0.384716 0.593985 0 0 1
-0.328272 -0.379507 0.594286 0 0 1
-0.329763 -0.379656 0.592988 0 0 1
-0.330282 -0.382321 0.591324 0 0 1
-0.331596 -0.38427 0.590189 0 0 1
-0.331205 -0.380622 0.591374 0 0 1
-0.328881 -0.370287 0.595357 0 0 1
-0.327137 -0.357476 0.599664 0 0 1
-0.326075 -0.350131 0.601885 0 0 1
-0.325801 -0.347028 0.602699 0 0 1
-0.324533 -0.345961 0.603661 0 0 1
-0.320305 -0.34445 0.605748 0 0 1
-0.310248 -0.344848 0.608017 0 0 1
-0.282981 -0.3437 0.58643 0 0 1
-0.25392 -0.337615 0.540856 0 0 1
-0.251437 -0.330412 0.512495 0 0 1
-0.253927 -0.326643 0.507824 0 0 1
-0.248476 -0.323873 0.518444 0 0 1
-0.254992 -0.32321 0.554735 0 0 1
-0.280665 -0.322609 0.59848 0 0 1
-0.297654 -0.318058 0.616744 0 0 1
-0.306016 -0.311986 0.618667 0 0 1
-0.308422 -0.30726 0.619616 0 0 1
-0.309954 -0.30339 0.620135 0 0 1
-0.310555 -0.300298 0.620764 0 0 1
-0.310779 -0.297969 0.621251 0 0 1
-0.310255 -0.295806 0.621839 0 0 1
-0.309233 -0.292884 0.62288 0 0 1
-0.308407 -0.289951 0.623859 0 0 1
-0.308096 -0.28541 0.625177 0 0 1
-0.307294 -0.280151 0.626566 0 0 1
-0.30579 -0.275221 0.628296 0 0 1
-0.306671 -0.271746 0.628595 0 0 1
-0.307662 -0.267684 0.629281 0 0 1
-0.306928 -0.263675 0.630438 0 0 1
-0.304511 -0.258948 0.631708 0 0 1
-0.303339 -0.254795 0.632821 0 0 1
-0.303092 -0.251486 0.63367 0 0 1
-0.302793 -0.247842 0.634332 0 0 1
-0.302069 -0.244248 0.635375 0 0 1
-0.301474 -0.240474 0.635958 0 0 1
-0.301228 -0.236982 0.636798 0 0 1
-0.300994 -0.233601 0.637595 0 0 1
-0.300504 -0.230326 0.638218 0 0 1
-0.299318 -0.226776 0.638908 0 0 1
-0.297957 -0.222778 0.639629 0 0 1
-0.297293 -0.219047 0.640303 0 0 1
-0.296518 -0.215638 0.640859 0 0 1
-0.295896 -0.211966 0.641364 0 0 1
-0.296682 -0.209178 0.641999 0 0 1
-0.296987 -0.206464 0.642352 0 0 1
-0.296188 -0.203321 0.642715 0 0 1
-0.295595 -0.19878 0.643412 0 0 1
-0.296191 -0.194042 0.644048 0 0 1
-0.297622 -0.189543 0.644671 0 0 1
-0.299059 -0.185033 0.64531 0 0 1
-0.300828 -0.17988 0.646035 0 0 1
-0.304309 -0.175481 0.646656 0 0 1
-0.307 -0.170465 0.647307 0 0 1
-0.318881 -0.156985 0.648586 0 0 1
-0.320429 -0.152916 0.652275 0 0 1
-0.321786 -0.148112 0.657358 0 0 1
-0.320861 -0.144587 0.659181 0 0 1
-0.319211 -0.141603 0.657633 0 0 1
-0.319386 -0.140545 0.658183 0 0 1
-0.317165 -0.140404 0.6617 0 0 1
-0.315645 -0.137056 0.663737 0 0 1
-0.314174 -0.135036 0.663035 0 0 1
-0.313261 -0.135759 0.661697 0 0 1
-0.312769 -0.132717 0.65907 0 0 1
-0.312545 -0.126655 0.663707 0 0 1
-0.311672 -0.121376 0.667219 0 0 1
-0.312268 -0.11413 0.666903 0 0 1
-0.31253 -0.106989 0.666562 0 0 1
-0.314029 -0.101794 0.664631 0 0 1
-0.315892 -0.0989778 0.663273 0 0 1
-0.316575 -0.0987314 0.66263 0 0 1
-0.317745 -0.097068 0.664014 0 0 1
-0.317323 -0.0974995 0.663768 0 0 1
-0.31713 -0.0958352 0.666382 0 0 1
-0.317702 -0.0921118 0.668117 0 0 1
-0.316535 -0.0873979 0.668068 0 0 1
-0.314819 -0.0835761 0.667673 0 0 1
-0.315925 -0.0791129 0.669066 0 0 1
-0.314582 -0.0759871 0.667745 0 0 1
-0.314475 -0.0722022 0.668656 0 0 1
-0.314587 -0.0692486 0.669518 0 0 1
-0.314638 -0.0663566 0.670195 0 0 1
-0.314643 -0.0630706 0.670963 0 0 1
-0.314912 -0.0596943 0.672093 0 0 1
-0.315692 -0.0566787 0.672913 0 0 1
-0.316383 -0.053261 0.673817 0 0 1
-0.317152 -0.0504773 0.675294 0 0 1
-0.316978 -0.0482364 0.675872 0 0 1
-0.316817 -0.0458501 0.676782 0 0 1
-0.317468 -0.0427539 0.677227 0 0 1
-0.317713 -0.039493 0.676446 0 0 1
-0.317819 -0.0363296 0.675579 0 0 1
-0.317772 -0.0319243 0.676526 0 0 1
-0.317542 -0.0269986 0.677429 0 0 1
-0.316667 -0.0234284 0.678711 0 0 1
-0.315413 -0.0202026 0.679546 0 0 1
-0.315105 -0.0173228 0.680631 0 0 1
-0.314824 -0.0143803 0.681899 0 0 1
-0.313995 -0.0109306 0.6828 0 0 1
-0.312841 -0.00787474 0.683107 0 0 1
-0.313662 -0.00561048 0.685235 0 0 1
-0.313748 -0.0020404 0.686507 0 0 1
-0.313558 0.00211643 0.687057 0 0 1
-0.311765 0.00427444 0.687238 0 0 1
-0.310747 0.00739838 0.687335 0 0 1
-0.310012 0.0109099 0.687784 0 0 1
-0.309535 0.0142733 0.688394 0 0 1
-0.308663 0.0174407 0.688299 0 0 1
-0.30842 0.0213456 0.689111 0 0 1
-0.309589 0.0262423 0.690762 0 0 1
-0.308178 0.0276704 0.69015 0 0 1
-0.307934 0.0300119 0.690355 0 0 1
-0.307953 0.0326232 0.691056 0 0 1
-0.307999 0.0358498 0.691546 0 0 1
-0.308092 0.0394756 0.691815 0 0 1
-0.308245 0.0430829 0.692221 0 0 1
-0.308677 0.0471367 0.692624 0 0 1
-0.309083 0.0518379 0.693264 0 0 1
-0.309269 0.0560212 0.693369 0 0 1
-0.309462 0.0598357 0.69339 0 0 1
-0.309818 0.06352 0.693762 0 0 1
-0.309694 0.0674857 0.693287 0 0 1
-0.309719 0.0684379 0.692982 0 0 1
-0.309845 0.0712181 0.692579 0 0 1
-0.309997 0.0741347 0.692133 0 0 1
-0.3101 0.0763267 0.691879 0 0 1
-0.310075 0.0799805 0.691407 0 0 1
-0.309842 0.0833037 0.690263 0 0 1
-0.310304 0.0873486 0.690249 0 0 1
-0.311433 0.0911295 0.690207 0 0 1
-0.310475 0.0943094 0.689619 0 0 1
-0.30975 0.0973871 0.688776 0 0 1
-0.308837 0.100961 0.687681 0 0 1
-0.307525 0.105022 0.686584 0 0 1
-0.306877 0.10905 0.686537 0 0 1
-0.306889 0.112031 0.686895 0 0 1
-0.307356 0.115448 0.687834 0 0 1
-0.308234 0.119237 0.688972 0 0 1
-0.308675 0.123164 0.689678 0 0 1
-0.308474 0.127056 0.690106 0 0 1
-0.308376 0.130976 0.690293 0 0 1
-0.308407 0.135689 0.690854 0 0 1
-0.308361 0.139119 0.691515 0 0 1
-0.307952 0.142643 0.691874 0 0 1
-0.307743 0.146195 0.692486 0 0 1
-0.30769 0.148983 0.693254 0 0 1
-0.30788 0.151885 0.694072 0 0 1
-0.307641 0.154895 0.694226 0 0 1
-0.307266 0.157883 0.694321 0 0 1
-0.306663 0.160956 0.694117 0 0 1
-0.306091 0.163894 0.693813 0 0 1
-0.3057 0.167169 0.693525 0 0 1
-0.305374 0.170847 0.693714 0 0 1
-0.305176 0.17499 0.693822 0 0 1
-0.305103 0.179096 0.693504 0 0 1
-0.30473 0.182964 0.692842 0 0 1
-0.304582 0.18657 0.692547 0 0 1
-0.305124 0.189574 0.693079 0 0 1
-0.303535 0.194249 0.69248 0 0 1
-0.302657 0.198156 0.692534 0 0 1
-0.302349 0.201256 0.693064 0 0 1
-0.30363 0.203133 0.694531 0 0 1
-0.303361 0.206797 0.694737 0 0 1
-0.301868 0.212178 0.694652 0 0 1
-0.30068 0.21662 0.694756 0 0 1
-0.298637 0.220935 0.693524 0 0 1
-0.294476 0.225053 0.689072 0 0 1
-0.288483 0.228896 0.683082 0 0 1
-0.286555 0.23319 0.681903 0 0 1
-0.288354 0.234037 0.685062 0 0 1
-0.292385 0.231675 0.688865 0 0 1
-0.294293 0.233293 0.691528 0 0 1
-0.295265 0.236899 0.693711 0 0 1
-0.295698 0.242555 0.696121 0 0 1
-0.295897 0.249889 0.698897 0 0 1
-0.295795 0.258613 0.702544 0 0 1
-0.295662 0.269729 0.706599 0 0 1
-0.294591 0.2833 0.70983 0 0 1
-0.294086 0.296382 0.711773 0 0 1
-0.29549 0.302576 0.713059 0 0 1
-0.298036 0.29954 0.714109 0 0 1
-0.300716 0.289925 0.714028 0 0 1
-0.302358 0.286625 0.714028 0 0 1
-0.302693 0.291335 0.715214 0 0 1
-0.301697 0.301714 0.717106 0 0 1
-0.303794 0.332746 0.715998 0 0 1
-0.316451 0.411187 0.690168 0 0 1
-0.321199 0.440146 0.684515 0 0 1
-0.323595 0.454561 0.680922 0 0 1
-0.32316 0.462234 0.677624 0 0 1
-0.321411 0.466253 0.676512 0 0 1
-0.321173 0.459758 0.677368 0 0 1
-0.320494 0.447573 0.681509 0 0 1
-0.320565 0.436325 0.686057 0 0 1
-0.321128 0.427905 0.689066 0 0 1
-0.321639 0.423438 0.690114 0 0 1
-0.322652 0.422657 0.69177 0 0 1
-0.322421 0.422092 0.692607 0 0 1
-0.32057 0.419702 0.69113 0 0 1
-0.320539 0.418687 0.691153 0 0 1
-0.322665 0.418534 0.692097 0 0 1
-0.323116 0.419056 0.691788 0 0 1
-0.322933 0.421624 0.691232 0 0 1
-0.322721 0.423952 0.691415 0 0 1
-0.322515 0.425522 0.691696 0 0 1
-0.322348 0.425247 0.691613 0 0 1
-0.322902 0.423397 0.692069 0 0 1
-0.324343 0.41784 0.692672 0 0 1
-0.325369 0.413011 0.693924 0 0 1
-0.325973 0.408789 0.694805 0 0 1
-0.32599 0.408548 0.69355 0 0 1
-0.325705 0.411726 0.694401 0 0 1
-0.324898 0.414962 0.694305 0 0 1
-0.324239 0.416365 0.693242 0 0 1
-0.3241 0.414729 0.69381 0 0 1
-0.322337 0.409517 0.694088 0 0 1
-0.322385 0.41008 0.694752 0 0 1
-0.322705 0.414477 0.69298 0 0 1
-0.322427 0.420028 0.691801 0 0 1
-0.322093 0.424312 0.691101 0 0 1
-0.322122 0.430397 0.689956 0 0 1
-0.321991 0.4394 0.686136 0 0 1
-0.321354 0.449973 0.680742 0 0 1
-0.321005 0.46405 0.675884 0 0 1
-0.318726 0.480702 0.67182 0 0 1
-0.315089 0.493249 0.669088 0 0 1
-0.313328 0.498545 0.667588 0 0 1
-0.314576 0.494764 0.668283 0 0 1
-0.318435 0.481908 0.67375 0 0 1
-0.321204 0.483243 0.679394 0 0 1
-0.317338 0.503861 0.68614 0 0 1
-0.312721 0.5332 0.680091 0 0 1
-0.32637 -0.653198 0.531642 0 0 1
-0.32536 -0.644557 0.539396 0 0 1
-0.325891 -0.636961 0.539609 0 0 1
-0.326567 -0.629583 0.537795 0 0 1
-0.327525 -0.623605 0.533661 0 0 1
-0.350951 -0.57969 0.515661 0 0 1
-0.351201 -0.575456 0.516365 0 0 1
-0.348668 -0.57119 0.520958 0 0 1
-0.346667 -0.568522 0.522011 0 0 1
-0.344288 -0.565154 0.524313 0 0 1
-0.342641 -0.561917 0.526345 0 0 1
-0.339684 -0.559893 0.529332 0 0 1
-0.337687 -0.558787 0.531948 0 0 1
-0.335318 -0.562798 0.532423 0 0 1
-0.334527 -0.562066 0.532502 0 0 1
-0.330974 -0.565021 0.531795 0 0 1
-0.321325 -0.570547 0.524997 0 0 1
-0.303066 -0.579768 0.500779 0 0 1
-0.290015 -0.586582 0.459932 0 0 1
-0.289627 -0.591776 0.447812 0 0 1
-0.288244 -0.594243 0.448537 0 0 1
-0.286919 -0.594061 0.44851 0 0 1
-0.285289 -0.591128 0.448939 0 0 1
-0.284786 -0.585423 0.448997 0 0 1
-0.282933 -0.58574 0.44989 0 0 1
-0.283041 -0.588984 0.450751 0 0 1
-0.284537 -0.592742 0.449189 0 0 1
-0.286012 -0.593612 0.448897 0 0 1
-0.286363 -0.591419 0.448987 0 0 1
-0.286292 -0.588135 0.449011 0 0 1
-0.286027 -0.583798 0.449709 0 0 1
-0.286487 -0.57821 0.450212 0 0 1
-0.286911 -0.572279 0.450802 0 0 1
-0.285902 -0.566655 0.452139 0 0 1
-0.283285 -0.559 0.454253 0 0 1
-0.281 -0.551469 0.456949 0 0 1
-0.277577 -0.542774 0.461184 0 0 1
-0.274867 -0.532691 0.47558 0 0 1
-0.277373 -0.5202 0.503721 0 0 1
-0.300203 -0.508707 0.541811 0 0 1
-0.310599 -0.501111 0.554555 0 0 1
-0.311546 -0.495632 0.555414 0 0 1
-0.310571 -0.493704 0.556107 0 0 1
-0.31087 -0.490335 0.556962 0 0 1
-0.311922 -0.488148 0.557508 0 0 1
-0.313174 -0.483041 0.560451 0 0 1
-0.31314 -0.474837 0.566198 0 0 1
-0.310946 -0.470633 0.569411 0 0 1
-0.302573 -0.469356 0.565415 0 0 1
-0.287099 -0.468129 0.553814 0 0 1
-0.262261 -0.458504 0.537044 0 0 1
-0.264382 -0.449437 0.550398 0 0 1
-0.286858 -0.44006 0.577558 0 0 1
-0.29897 -0.430102 0.584834 0 0 1
-0.312571 -0.417132 0.590933 0 0 1
-0.315871 -0.408814 0.592884 0 0 1
-0.31737 -0.404276 0.593789 0 0 1
-0.317373 -0.401923 0.593974 0 0 1
-0.31617 -0.404982 0.593448 0 0 1
-0.314931 -0.410258 0.591797 0 0 1
-0.316136 -0.406232 0.592479 0 0 1
-0.318782 -0.39836 0.594213 0 0 1
-0.322256 -0.388339 0.595029 0 0 1
-0.324098 -0.382787 0.595463 0 0 1
-0.325542 -0.382238 0.594389 0 0 1
-0.326066 -0.384538 0.593267 0 0 1
-0.326562 -0.385237 0.593261 0 0 1
-0.325598 -0.378931 0.595643 0 0 1
-0.325171 -0.366873 0.598767 0 0 1
-0.32536 -0.355802 0.601109 0 0 1
-0.324553 -0.350418 0.602487 0 0 1
-0.322807 -0.347699 0.604212 0 0 1
-0.3193 -0.345013 0.604966 0 0 1
-0.313058 -0.344088 0.607095 0 0 1
-0.2967 -0.344814 0.606552 0 0 1
-0.268602 -0.344323 0.583152 0 0 1
-0.248674 -0.337011 0.537632 0 0 1
-0.252199 -0.330342 0.511577 0 0 1
-0.254796 -0.326115 0.506926 0 0 1
-0.249611 -0.323619 0.515114 0 0 1
-0.248187 -0.32308 0.546385 0 0 1
-0.263548 -0.323156 0.589809 0 0 1
-0.283494 -0.318691 0.612253 0 0 1
-0.296893 -0.313462 0.619724 0 0 1
-0.301696 -0.308318 0.620565 0 0 1
-0.304388 -0.304118 0.621109 0 0 1
-0.305935 -0.300569 0.621805 0 0 1
-0.305582 -0.296631 0.62299 0 0 1
-0.306775 -0.294615 0.623172 0 0 1
-0.306742 -0.29159 0.623755 0 0 1
-0.305437 -0.28798 0.625014 0 0 1
-0.304366 -0.283463 0.626436 0 0 1
-0.304246 -0.278876 0.627528 0 0 1
-0.303595 -0.27462 0.628549 0 0 1
-0.303714 -0.270377 0.629751 0 0 1
-0.303881 -0.266129 0.630572 0 0 1
-0.30282 -0.261194 0.631913 0 0 1
-0.301134 -0.256748 0.632859 0 0 1
-0.300571 -0.253274 0.633757 0 0 1
-0.300341 -0.249981 0.634365 0 0 1
-0.299805 -0.24617 0.635164 0 0 1
-0.299505 -0.241653 0.636149 0 0 1
-0.299816 -0.238203 0.636521 0 0 1
-0.299544 -0.234994 0.637153 0 0 1
-0.298462 -0.232021 0.637835 0 0 1
-0.297345 -0.228619 0.638529 0 0 1
-0.294221 -0.225975 0.639028 0 0 1
-0.291952 -0.222805 0.639578 0 0 1
-0.290881 -0.21891 0.640239 0 0 1
-0.289731 -0.214573 0.640743 0 0 1
-0.289452 -0.210838 0.641233 0 0 1
-0.290399 -0.207762 0.641848 0 0 1
-0.291506 -0.205763 0.642073 0 0 1
-0.291201 -0.202456 0.642525 0 0 1
-0.290144 -0.198142 0.643039 0 0 1
-0.290426 -0.19392 0.643501 0 0 1
-0.291557 -0.189828 0.644162 0 0 1
-0.29298 -0.185673 0.644794 0 0 1
-0.295269 -0.181358 0.645362 0 0 1
-0.297883 -0.176565 0.646229 0 0 1
-0.300327 -0.17109 0.646727 0 0 1
-0.302382 -0.165509 0.648221 0 0 1
-0.316547 -0.158529 0.645522 0 0 1
-0.316974 -0.151881 0.65188 0 0 1
-0.318108 -0.146378 0.655318 0 0 1
-0.317159 -0.142765 0.654114 0 0 1
-0.317677 -0.140866 0.653708 0 0 1
-0.314881 -0.139306 0.657629 0 0 1
-0.312871 -0.136809 0.661494 0 0 1
-0.312079 -0.13439 0.660689 0 0 1
-0.310856 -0.134704 0.659352 0 0 1
-0.309916 -0.13162 0.657653 0 0 1
-0.309436 -0.125567 0.661618 0 0 1
-0.308685 -0.120046 0.666015 0 0 1
-0.309017 -0.114449 0.665755 0 0 1
-0.308968 -0.108867 0.66562 0 0 1
-0.309618 -0.103814 0.661807 0 0 1
-0.311238 -0.0998388 0.661543 0 0 1
-0.311977 -0.0993293 0.660498 0 0 1
-0.313457 -0.0970321 0.661875 0 0 1
-0.314273 -0.0957931 0.663125 0 0 1
-0.313471 -0.0951994 0.665849 0 0 1
-0.313441 -0.0919832 0.666406 0 0 1
-0.312618 -0.0868898 0.665948 0 0 1
-0.311185 -0.083903 0.665625 0 0 1
-0.311055 -0.0805824 0.66522 0 0 1
-0.311547 -0.0763925 0.666162 0 0 1
-0.311729 -0.0719876 0.66735 0 0 1
-0.311877 -0.06843 0.668122 0 0 1
-0.311904 -0.0658146 0.668725 0 0 1
-0.311875 -0.062578 0.669551 0 0 1
-0.312093 -0.0591135 0.670761 0 0 1
-0.312468 -0.0556213 0.67126 0 0 1
-0.313227 -0.052828 0.672069 0 0 1
-0.313326 -0.0499737 0.67301 0 0 1
-0.31335 -0.047356 0.673786 0 0 1
-0.313258 -0.0450498 0.674553 0 0 1
-0.313762 -0.0419765 0.675087 0 0 1
-0.314474 -0.0390229 0.674811 0 0 1
-0.314943 -0.0355094 0.673779 0 0 1
-0.314955 -0.031494 0.67415 0 0 1
-0.314387 -0.0272074 0.675455 0 0 1
-0.31335 -0.022506 0.676287 0 0 1
-0.312756 -0.0194802 0.677246 0 0 1
-0.312492 -0.0172576 0.678413 0 0 1
-0.311905 -0.014159 0.679661 0 0 1
-0.310634 -0.0106678 0.680264 0 0 1
-0.310162 -0.00803214 0.680923 0 0 1
-0.309863 -0.00516048 0.682025 0 0 1
-0.309763 -0.00180504 0.683113 0 0 1
-0.309277 0.000610873 0.684146 0 0 1
-0.308078 0.00351699 0.684201 0 0 1
-0.307478 0.00681838 0.684585 0 0 1
-0.306951 0.0105339 0.685102 0 0 1
-0.306063 0.0146179 0.685676 0 0 1
-0.305381 0.0182452 0.685712 0 0 1
-0.30516 0.021723 0.686399 0 0 1
-0.305238 0.0252942 0.687111 0 0 1
-0.306032 0.0292287 0.687353 0 0 1
-0.304995 0.0306859 0.688334 0 0 1
-0.305053 0.033572 0.688742 0 0 1
-0.305265 0.0368336 0.689096 0 0 1
-0.305473 0.040117 0.689478 0 0 1
-0.305466 0.0436217 0.689844 0 0 1
-0.305541 0.0478538 0.690017 0 0 1
-0.305689 0.0520082 0.690127 0 0 1
-0.305717 0.056318 0.690186 0 0 1
-0.305679 0.0609843 0.689955 0 0 1
-0.305832 0.064418 0.689873 0 0 1
-0.306355 0.0663387 0.690078 0 0 1
-0.307574 0.0696217 0.690301 0 0 1
-0.306593 0.0710159 0.689473 0 0 1
-0.306456 0.0740741 0.688847 0 0 1
-0.306732 0.0768071 0.688672 0 0 1
-0.306648 0.0798933 0.687859 0 0 1
-0.306747 0.0838615 0.687231 0 0 1
-0.306808 0.0877049 0.686961 0 0 1
-0.307132 0.0915366 0.686462 0 0 1
-0.307052 0.0948958 0.685953 0 0 1
-0.306952 0.0977964 0.685872 0 0 1
-0.306563 0.101167 0.685317 0 0 1
-0.306091 0.105175 0.685188 0 0 1
-0.305644 0.108744 0.685316 0 0 1
-0.305585 0.112264 0.685471 0 0 1
-0.305775 0.11563 0.686112 0 0 1
-0.305982 0.118988 0.686666 0 0 1
-0.306125 0.12244 0.68726 0 0 1
-0.305807 0.127004 0.687403 0 0 1
-0.305776 0.131544 0.688139 0 0 1
-0.305842 0.135804 0.688512 0 0 1
-0.306819 0.138135 0.688816 0 0 1
-0.305662 0.143031 0.68993 0 0 1
-0.305473 0.146574 0.690736 0 0 1
-0.30543 0.149128 0.691317 0 0 1
-0.305279 0.152317 0.691427 0 0 1
-0.304851 0.155678 0.691555 0 0 1
-0.304121 0.158554 0.691253 0 0 1
-0.303563 0.161204 0.690901 0 0 1
-0.303141 0.164264 0.690725 0 0 1
-0.302679 0.167431 0.690481 0 0 1
-0.30254 0.171046 0.690524 0 0 1
-0.302561 0.174884 0.690641 0 0 1
-0.302274 0.178931 0.689994 0 0 1
-0.301848 0.183052 0.689256 0 0 1
-0.301539 0.186898 0.688977 0 0 1
-0.30168 0.190127 0.689574 0 0 1
-0.300185 0.194744 0.689001 0 0 1
-0.299585 0.198065 0.689188 0 0 1
-0.299746 0.200855 0.690267 0 0 1
-0.300795 0.202712 0.691709 0 0 1
-0.300109 0.206667 0.691698 0 0 1
-0.29836 0.211724 0.691262 0 0 1
-0.296934 0.216811 0.691242 0 0 1
-0.293814 0.221669 0.688875 0 0 1
-0.286142 0.225424 0.682173 0 0 1
-0.279621 0.229738 0.67309 0 0 1
-0.277303 0.234144 0.671224 0 0 1
-0.278543 0.236817 0.674611 0 0 1
-0.282457 0.237141 0.679998 0 0 1
-0.286806 0.235977 0.68492 0 0 1
-0.288702 0.238437 0.68818 0 0 1
-0.289506 0.242834 0.69097 0 0 1
-0.289613 0.249421 0.694265 0 0 1
-0.289288 0.258048 0.697974 0 0 1
-0.288399 0.269742 0.702391 0 0 1
-0.287201 0.284241 0.705994 0 0 1
-0.286752 0.296405 0.708195 0 0 1
-0.287227 0.306089 0.709287 0 0 1
-0.289264 0.307036 0.710401 0 0 1
-0.292212 0.299742 0.711481 0 0 1
-0.295803 0.288237 0.711248 0 0 1
-0.296836 0.290559 0.712038 0 0 1
-0.297706 0.296931 0.713404 0 0 1
-0.296983 0.313589 0.71462 0 0 1
-0.312488 0.389265 0.691513 0 0 1
-0.31741 0.415513 0.691138 0 0 1
-0.320573 0.431051 0.688328 0 0 1
-0.321369 0.439145 0.68604 0 0 1
-0.319459 0.44663 0.681255 0 0 1
-0.317822 0.444215 0.681979 0 0 1
-0.317981 0.436285 0.685473 0 0 1
-0.318691 0.42792 0.688481 0 0 1
-0.319736 0.422146 0.689938 0 0 1
-0.319719 0.418881 0.690625 0 0 1
-0.318742 0.418056 0.690573 0 0 1
-0.318127 0.419148 0.690547 0 0 1
-0.317926 0.420233 0.690205 0 0 1
-0.318376 0.420212 0.689852 0 0 1
-0.320256 0.419946 0.691145 0 0 1
-0.319347 0.419857 0.690422 0 0 1
-0.31857 0.420596 0.690306 0 0 1
-0.318345 0.42197 0.690406 0 0 1
-0.317942 0.423642 0.69006 0 0 1
-0.317613 0.425307 0.689389 0 0 1
-0.31989 0.420986 0.690737 0 0 1
-0.321257 0.41647 0.691733 0 0 1
-0.321913 0.411852 0.69318 0 0 1
-0.322523 0.408752 0.693118 0 0 1
-0.322719 0.409861 0.69347 0 0 1
-0.322489 0.411188 0.693946 0 0 1
-0.321089 0.412763 0.692325 0 0 1
-0.322431 0.415733 0.692684 0 0 1
-0.322253 0.415083 0.693465 0 0 1
-0.319921 0.411144 0.692907 0 0 1
-0.31872 0.412072 0.691984 0 0 1
-0.318473 0.417116 0.691274 0 0 1
-0.31832 0.422398 0.690737 0 0 1
-0.318767 0.426826 0.689917 0 0 1
-0.319758 0.433659 0.687956 0 0 1
-0.320916 0.443727 0.68237 0 0 1
-0.319821 0.451538 0.677427 0 0 1
-0.319645 0.463671 0.673032 0 0 1
-0.319131 0.477698 0.671097 0 0 1
-0.316094 0.486671 0.669883 0 0 1
-0.315226 0.489557 0.66888 0 0 1
-0.318999 0.484651 0.672177 0 0 1
-0.320884 0.482252 0.678113 0 0 1
-0.32091 0.495813 0.681837 0 0 1
-0.314343 0.519325 0.679867 0 0 1
-0.306821 -0.665051 0.538702 0 0 1
-0.308268 -0.657683 0.540183 0 0 1
-0.308864 -0.65114 0.542329 0 0 1
-0.309642 -0.644405 0.541741 0 0 1
-0.310386 -0.637739 0.541393 0 0 1
-0.313133 -0.629681 0.541039 0 0 1
-0.315503 -0.623253 0.540414 0 0 1
-0.317669 -0.620049 0.539774 0 0 1
-0.321029 -0.614842 0.5382 0 0 1
-0.325161 -0.611562 0.537538 0 0 1
-0.330084 -0.607423 0.535464 0 0 1
-0.33304 -0.605127 0.533835 0 0 1
-0.335515 -0.603081 0.532488 0 0 1
-0.337172 -0.602157 0.531319 0 0 1
-0.337818 -0.601803 0.531068 0 0 1
-0.337501 -0.601087 0.531506 0 0 1
-0.33681 -0.600121 0.531157 0 0 1
-0.334758 -0.598381 0.531681 0 0 1
-0.334043 -0.595862 0.532956 0 0 1
-0.334276 -0.592788 0.532974 0 0 1
-0.335852 -0.590148 0.53062 0 0 1
-0.337424 -0.587361 0.52981 0 0 1
-0.338473 -0.583634 0.529314 0 0 1
-0.339726 -0.5804 0.527412 0 0 1
-0.337621 -0.576326 0.529948 0 0 1
-0.334378 -0.572623 0.531867 0 0 1
-0.332039 -0.569203 0.534023 0 0 1
-0.330743 -0.565442 0.534758 0 0 1
-0.328698 -0.560564 0.536979 0 0 1
-0.326802 -0.556516 0.539548 0 0 1
-0.325407 -0.556459 0.539309 0 0 1
-0.323495 -0.558638 0.538674 0 0 1
-0.320054 -0.562445 0.538936 0 0 1
-0.31706 -0.564964 0.538545 0 0 1
-0.29565 -0.577087 0.525169 0 0 1
-0.275911 -0.585386 0.487231 0 0 1
-0.273595 -0.592667 0.457054 0 0 1
-0.277358 -0.597644 0.452814 0 0 1
-0.278179 -0.599732 0.452247 0 0 1
-0.278238 -0.5985 0.452512 0 0 1
-0.277226 -0.592926 0.453799 0 0 1
-0.27581 -0.586607 0.454551 0 0 1
-0.275184 -0.585731 0.455455 0 0 1
-0.27699 -0.589159 0.453813 0 0 1
-0.279426 -0.592567 0.452214 0 0 1
-0.280817 -0.592461 0.451441 0 0 1
-0.281587 -0.590423 0.450953 0 0 1
-0.28104 -0.588665 0.450764 0 0 1
-0.280941 -0.585389 0.45112 0 0 1
-0.28158 -0.581489 0.451109 0 0 1
-0.282349 -0.576412 0.451388 0 0 1
-0.282142 -0.570167 0.452539 0 0 1
-0.281347 -0.563496 0.454025 0 0 1
-0.280412 -0.556798 0.455926 0 0 1
-0.277972 -0.548475 0.459544 0 0 1
-0.27174 -0.535426 0.469423 0 0 1
-0.273039 -0.519709 0.497714 0 0 1
-0.297317 -0.510928 0.542074 0 0 1
-0.307191 -0.503364 0.555405 0 0 1
-0.307578 -0.498385 0.55616 0 0 1
-0.308218 -0.497088 0.555976 0 0 1
-0.308788 -0.495662 0.556191 0 0 1
-0.309342 -0.492115 0.557262 0 0 1
-0.309558 -0.484818 0.560759 0 0 1
-0.309265 -0.474469 0.567327 0 0 1
-0.307359 -0.466106 0.572936 0 0 1
-0.301461 -0.463638 0.575244 0 0 1
-0.284671 -0.462028 0.568547 0 0 1
-0.269076 -0.455718 0.561171 0 0 1
-0.272049 -0.448113 0.568279 0 0 1
-0.28792 -0.438422 0.581942 0 0 1
-0.300846 -0.426702 0.589374 0 0 1
-0.307898 -0.41668 0.592258 0 0 1
-0.311147 -0.409871 0.59358 0 0 1
-0.312022 -0.40553 0.594449 0 0 1
-0.31203 -0.404257 0.594757 0 0 1
-0.311829 -0.403832 0.595157 0 0 1
-0.309055 -0.408674 0.593728 0 0 1
-0.309398 -0.406507 0.594332 0 0 1
-0.313058 -0.397608 0.595995 0 0 1
-0.316351 -0.388985 0.596619 0 0 1
-0.318915 -0.384374 0.596539 0 0 1
-0.319414 -0.38451 0.595988 0 0 1
-0.319907 -0.384865 0.596262 0 0 1
-0.320532 -0.380969 0.59788 0 0 1
-0.32194 -0.369926 0.599799 0 0 1
-0.322853 -0.359832 0.60174 0 0 1
-0.322585 -0.353145 0.603559 0 0 1
-0.321088 -0.349458 0.604931 0 0 1
-0.318519 -0.346229 0.606935 0 0 1
-0.314323 -0.343924 0.607172 0 0 1
-0.305636 -0.343224 0.605851 0 0 1
-0.284901 -0.345097 0.601896 0 0 1
-0.255524 -0.343082 0.574259 0 0 1
-0.245156 -0.336021 0.532971 0 0 1
-0.251485 -0.330107 0.512611 0 0 1
-0.254031 -0.32632 0.507778 0 0 1
-0.249915 -0.323677 0.51392 0 0 1
-0.243964 -0.322257 0.536727 0 0 1
-0.249127 -0.32199 0.572458 0 0 1
-0.268473 -0.31976 0.60268 0 0 1
-0.284022 -0.314931 0.61701 0 0 1
-0.292348 -0.309933 0.62078 0 0 1
-0.297338 -0.304933 0.62217 0 0 1
-0.300011 -0.300509 0.622918 0 0 1
-0.301389 -0.296889 0.623673 0 0 1
-0.302748 -0.293422 0.624339 0 0 1
-0.302748 -0.290119 0.625319 0 0 1
-0.301622 -0.286512 0.626305 0 0 1
-0.300544 -0.282591 0.627177 0 0 1
-0.300529 -0.278542 0.628254 0 0 1
-0.300825 -0.273899 0.629378 0 0 1
-0.300497 -0.268983 0.630465 0 0 1
-0.299953 -0.263989 0.631604 0 0 1
-0.29888 -0.259591 0.632555 0 0 1
-0.29752 -0.255685 0.633586 0 0 1
-0.296981 -0.252236 0.634273 0 0 1
-0.296704 -0.248922 0.634875 0 0 1
-0.295926 -0.244741 0.635663 0 0 1
-0.296187 -0.240681 0.636568 0 0 1
-0.297295 -0.237167 0.636884 0 0 1
-0.297317 -0.234562 0.637308 0 0 1
-0.296235 -0.230727 0.638138 0 0 1
-0.295381 -0.225976 0.639192 0 0 1
-0.292847 -0.222713 0.639725 0 0 1
-0.287225 -0.22192 0.639367 0 0 1
-0.284198 -0.218727 0.63936 0 0 1
-0.282511 -0.213902 0.63976 0 0 1
-0.282113 -0.20955 0.640394 0 0 1
-0.284118 -0.206208 0.641173 0 0 1
-0.286115 -0.203757 0.641564 0 0 1
-0.286733 -0.201377 0.642088 0 0 1
-0.286159 -0.197524 0.642508 0 0 1
-0.286124 -0.193111 0.642973 0 0 1
-0.28675 -0.189306 0.643494 0 0 1
-0.2876 -0.185766 0.643825 0 0 1
-0.289571 -0.182046 0.644581 0 0 1
-0.291863 -0.177954 0.645293 0 0 1
-0.293486 -0.172737 0.645913 0 0 1
-0.295818 -0.167292 0.646236 0 0 1
-0.298225 -0.161543 0.648096 0 0 1
-0.312733 -0.157369 0.645626 0 0 1
-0.313015 -0.150414 0.651362 0 0 1
-0.313837 -0.146314 0.651306 0 0 1
-0.31499 -0.142501 0.651455 0 0 1
-0.314254 -0.139005 0.654919 0 0 1
-0.310791 -0.136125 0.658978 0 0 1
-0.309401 -0.13315 0.658078 0 0 1
-0.307994 -0.13369 0.657277 0 0 1
-0.307098 -0.131013 0.65543 0 0 1
-0.305986 -0.125963 0.658708 0 0 1
-0.305317 -0.120494 0.663765 0 0 1
-0.305817 -0.115925 0.663558 0 0 1
-0.305526 -0.111081 0.663912 0 0 1
-0.306039 -0.10646 0.662863 0 0 1
-0.307056 -0.102142 0.660995 0 0 1
-0.308455 -0.0997731 0.660262 0 0 1
-0.309319 -0.0981138 0.660229 0 0 1
-0.309927 -0.0958594 0.660861 0 0 1
-0.308616 -0.0947028 0.663957 0 0 1
-0.307897 -0.0909852 0.662655 0 0 1
-0.308347 -0.0862632 0.663125 0 0 1
-0.307927 -0.0819282 0.664232 0 0 1
-0.307214 -0.0801483 0.663094 0 0 1
-0.3074 -0.0765787 0.663507 0 0 1
-0.308479 -0.072257 0.665078 0 0 1
-0.309192 -0.0684555 0.666287 0 0 1
-0.310164 -0.0644176 0.668389 0 0 1
-0.30919 -0.0621117 0.668095 0 0 1
-0.309146 -0.0579322 0.66894 0 0 1
-0.310197 -0.0532487 0.6708 0 0 1
-0.310553 -0.0504446 0.671399 0 0 1
-0.309995 -0.0497537 0.670727 0 0 1
-0.309997 -0.0464832 0.671548 0 0 1
-0.309948 -0.0426783 0.672317 0 0 1
-0.310276 -0.0397675 0.672325 0 0 1
-0.310934 -0.0372617 0.672049 0 0 1
-0.31149 -0.0349151 0.67137 0 0 1
-0.311635 -0.0312191 0.671347 0 0 1
-0.310722 -0.025819 0.672162 0 0 1
-0.310139 -0.0220015 0.67368 0 0 1
-0.309873 -0.0189939 0.675115 0 0 1
-0.309576 -0.0163061 0.676437 0 0 1
-0.308299 -0.0134504 0.676709 0 0 1
-0.307413 -0.0105097 0.677451 0 0 1
-0.306808 -0.00763477 0.678385 0 0 1
-0.30612 -0.00511673 0.679051 0 0 1
-0.305574 -0.00305615 0.679964 0 0 1
-0.305071 0.000118405 0.680634 0 0 1
-0.304114 0.00323205 0.68072 0 0 1
-0.303344 0.00683776 0.681033 0 0 1
-0.302809 0.0109262 0.681925 0 0 1
-0.302566 0.0147235 0.682705 0 0 1
-0.302123 0.0180538 0.682812 0 0 1
-0.30146 0.0209709 0.682979 0 0 1
-0.301258 0.0244012 0.683588 0 0 1
-0.301314 0.0277395 0.684682 0 0 1
-0.301363 0.0311325 0.684866 0 0 1
-0.301418 0.0344917 0.685441 0 0 1
-0.301667 0.0381256 0.686044 0 0 1
-0.302169 0.0414596 0.686621 0 0 1
-0.302248 0.0441324 0.686915 0 0 1
-0.302007 0.0481096 0.686677 0 0 1
-0.301932 0.0522684 0.686669 0 0 1
-0.301944 0.0568419 0.686827 0 0 1
-0.302119 0.0601147 0.686926 0 0 1
-0.302746 0.0626937 0.686922 0 0 1
-0.303027 0.0657133 0.68706 0 0 1
-0.30439 0.0693633 0.687596 0 0 1
-0.303587 0.071449 0.686721 0 0 1
-0.303232 0.074251 0.685856 0 0 1
-0.303376 0.0772995 0.685442 0 0 1
-0.303352 0.08049 0.684851 0 0 1
-0.303415 0.0843669 0.68417 0 0 1
-0.303456 0.0882255 0.683434 0 0 1
-0.303527 0.0918822 0.683227 0 0 1
-0.303659 0.0946724 0.683038 0 0 1
-0.303843 0.0983408 0.682695 0 0 1
-0.304079 0.102245 0.682993 0 0 1
-0.304175 0.106189 0.68334 0 0 1
-0.303939 0.109399 0.683722 0 0 1
-0.303907 0.112621 0.683853 0 0 1
-0.303885 0.116318 0.684116 0 0 1
-0.303889 0.119653 0.684665 0 0 1
-0.303784 0.122455 0.684674 0 0 1
-0.303714 0.126339 0.684985 0 0 1
-0.3035 0.131158 0.685704 0 0 1
-0.303521 0.135625 0.68616 0 0 1
-0.303379 0.13905 0.687044 0 0 1
-0.303243 0.14345 0.687913 0 0 1
-0.303068 0.146582 0.688282 0 0 1
-0.302838 0.149332 0.688774 0 0 1
-0.302058 0.152666 0.688673 0 0 1
-0.301326 0.155777 0.688411 0 0 1
-0.301069 0.158422 0.688445 0 0 1
-0.300603 0.161494 0.688095 0 0 1
-0.300323 0.164771 0.6877 0 0 1
-0.30038 0.167946 0.687889 0 0 1
-0.301383 0.17041 0.68847 0 0 1
-0.300136 0.174943 0.687633 0 0 1
-0.299581 0.179381 0.68675 0 0 1
-0.299083 0.183658 0.686003 0 0 1
-0.298502 0.187287 0.685619 0 0 1
-0.297719 0.191216 0.685394 0 0 1
-0.296837 0.194721 0.685356 0 0 1
-0.296724 0.197569 0.685992 0 0 1
-0.298326 0.199074 0.688346 0 0 1
-0.298168 0.202295 0.688887 0 0 1
-0.297021 0.20638 0.688677 0 0 1
-0.294966 0.211901 0.688301 0 0 1
-0.293165 0.21682 0.687792 0 0 1
-0.288849 0.221682 0.683944 0 0 1
-0.281029 0.225361 0.672615 0 0 1
-0.271164 0.228406 0.661995 0 0 1
-0.268064 0.23418 0.65978 0 0 1
-0.269971 0.236533 0.664688 0 0 1
-0.272447 0.240397 0.669165 0 0 1
-0.276434 0.241683 0.675471 0 0 1
-0.279591 0.243359 0.681069 0 0 1
-0.281612 0.245376 0.68451 0 0 1
-0.282684 0.249102 0.688271 0 0 1
-0.282467 0.256082 0.691454 0 0 1
-0.281617 0.265578 0.695579 0 0 1
-0.280192 0.278478 0.699547 0 0 1
-0.279175 0.291786 0.70205 0 0 1
-0.279488 0.300279 0.70316 0 0 1
-0.28136 0.302268 0.704578 0 0 1
-0.283396 0.300417 0.70633 0 0 1
-0.286466 0.29445 0.70743 0 0 1
-0.288947 0.291092 0.708467 0 0 1
-0.290939 0.294047 0.709662 0 0 1
-0.292458 0.302289 0.714595 0 0 1
-0.297812 0.333269 0.713257 0 0 1
-0.310959 0.397674 0.691899 0 0 1
-0.31567 0.415695 0.690803 0 0 1
-0.318024 0.425126 0.689927 0 0 1
-0.318249 0.429973 0.688921 0 0 1
-0.316101 0.436066 0.68784 0 0 1
-0.315678 0.434978 0.688172 0 0 1
-0.316445 0.426296 0.688923 0 0 1
-0.317263 0.421846 0.689825 0 0 1
-0.317282 0.419143 0.69005 0 0 1
-0.316086 0.418602 0.689726 0 0 1
-0.314918 0.419332 0.689217 0 0 1
-0.314759 0.42045 0.688639 0 0 1
-0.315185 0.421203 0.688771 0 0 1
-0.315963 0.421899 0.68889 0 0 1
-0.315966 0.422148 0.689019 0 0 1
-0.315194 0.42172 0.68889 0 0 1
-0.314772 0.421949 0.688888 0 0 1
-0.314754 0.423352 0.688945 0 0 1
-0.315211 0.425206 0.688895 0 0 1
-0.318181 0.421429 0.690516 0 0 1
-0.318839 0.417033 0.690784 0 0 1
-0.318932 0.411446 0.692249 0 0 1
-0.318946 0.408184 0.692413 0 0 1
-0.318928 0.409203 0.6922 0 0 1
-0.31915 0.410348 0.693034 0 0 1
-0.318499 0.411624 0.691823 0 0 1
-0.319371 0.414469 0.692044 0 0 1
-0.319481 0.415273 0.692586 0 0 1
-0.317065 0.413271 0.691796 0 0 1
-0.315783 0.415152 0.690733 0 0 1
-0.315066 0.419898 0.689708 0 0 1
-0.314931 0.424175 0.689083 0 0 1
-0.316368 0.428945 0.688588 0 0 1
-0.319311 0.437864 0.686117 0 0 1
-0.319844 0.447524 0.678419 0 0 1
-0.318622 0.456188 0.672995 0 0 1
-0.318017 0.466432 0.670003 0 0 1
-0.317253 0.475672 0.668776 0 0 1
-0.316107 0.481426 0.668463 0 0 1
-0.316741 0.48205 0.669317 0 0 1
-0.320448 0.482048 0.673589 0 0 1
-0.320608 0.492535 0.678884 0 0 1
-0.316504 0.513921 0.681391 0 0 1
-0.310085 0.535403 0.672103 0 0 1
-0.29747 -0.6732 0.534694 0 0 1
-0.297975 -0.663886 0.544759 0 0 1
-0.297446 -0.656819 0.541587 0 0 1
-0.295907 -0.6502 0.540844 0 0 1
-0.294584 -0.643179 0.538815 0 0 1
-0.29583 -0.636843 0.538764 0 0 1
-0.298467 -0.6306 0.539292 0 0 1
-0.301703 -0.623909 0.539609 0 0 1
-0.303922 -0.618822 0.540138 0 0 1
-0.306497 -0.614724 0.539873 0 0 1
-0.310719 -0.611168 0.539596 0 0 1
-0.314946 -0.607941 0.53898 0 0 1
-0.317168 -0.604428 0.538257 0 0 1
-0.319325 -0.602022 0.537766 0 0 1
-0.320407 -0.600902 0.537321 0 0 1
-0.321175 -0.602277 0.535787 0 0 1
-0.32125 -0.600322 0.535708 0 0 1
-0.321556 -0.598159 0.535511 0 0 1
-0.319675 -0.597455 0.53745 0 0 1
-0.31873 -0.59463 0.537988 0 0 1
-0.318793 -0.590805 0.537121 0 0 1
-0.322282 -0.588555 0.536134 0 0 1
-0.322086 -0.587346 0.536767 0 0 1
-0.322668 -0.5838 0.536385 0 0 1
-0.322815 -0.579576 0.535819 0 0 1
-0.32176 -0.575432 0.537212 0 0 1
-0.319724 -0.571546 0.538308 0 0 1
-0.318755 -0.56779 0.539402 0 0 1
-0.318357 -0.563339 0.539664 0 0 1
-0.31748 -0.557842 0.541296 0 0 1
-0.317276 -0.553538 0.542353 0 0 1
-0.316723 -0.55052 0.542475 0 0 1
-0.314919 -0.55362 0.542114 0 0 1
-0.309758 -0.561007 0.540995 0 0 1
-0.299747 -0.569397 0.539047 0 0 1
-0.279906 -0.579185 0.520566 0 0 1
-0.264146 -0.586981 0.486196 0 0 1
-0.265178 -0.59541 0.466098 0 0 1
-0.270152 -0.600615 0.456998 0 0 1
-0.272626 -0.602726 0.454929 0 0 1
-0.273245 -0.60042 0.455317 0 0 1
-0.272039 -0.593085 0.456498 0 0 1
-0.269835 -0.585409 0.45914 0 0 1
-0.269614 -0.582285 0.459884 0 0 1
-0.27154 -0.585284 0.457961 0 0 1
-0.273665 -0.589737 0.45484 0 0 1
-0.275449 -0.588361 0.453863 0 0 1
-0.276257 -0.583208 0.454656 0 0 1
-0.275978 -0.584498 0.453915 0 0 1
-0.276292 -0.582967 0.453798 0 0 1
-0.277602 -0.580994 0.45323 0 0 1
-0.27864 -0.577862 0.453073 0 0 1
-0.279532 -0.572913 0.453271 0 0 1
-0.279431 -0.566395 0.454268 0 0 1
-0.278591 -0.559791 0.456088 0 0 1
-0.276364 -0.551137 0.459714 0 0 1
-0.270263 -0.536869 0.470292 0 0 1
-0.270679 -0.522266 0.501041 0 0 1
-0.283023 -0.515333 0.5291 0 0 1
-0.294228 -0.507607 0.544169 0 0 1
-0.295565 -0.504276 0.545412 0 0 1
-0.296419 -0.504502 0.544404 0 0 1
-0.297771 -0.502224 0.543553 0 0 1
-0.297957 -0.496041 0.545637 0 0 1
-0.302554 -0.487016 0.555806 0 0 1
-0.305938 -0.476096 0.567659 0 0 1
-0.302702 -0.466315 0.573732 0 0 1
-0.296851 -0.460352 0.577148 0 0 1
-0.286335 -0.456836 0.576192 0 0 1
-0.277098 -0.453362 0.574539 0 0 1
-0.276859 -0.44741 0.576626 0 0 1
-0.287525 -0.438048 0.584035 0 0 1
-0.296818 -0.427229 0.589391 0 0 1
-0.304014 -0.416816 0.59269 0 0 1
-0.306859 -0.410986 0.593991 0 0 1
-0.307402 -0.407597 0.594892 0 0 1
-0.30716 -0.405365 0.595602 0 0 1
-0.306403 -0.405109 0.595448 0 0 1
-0.305531 -0.404121 0.5959 0 0 1
-0.305185 -0.401147 0.597182 0 0 1
-0.307207 -0.394256 0.598504 0 0 1
-0.309966 -0.387877 0.598976 0 0 1
-0.311238 -0.385979 0.598814 0 0 1
-0.311862 -0.385162 0.598809 0 0 1
-0.314532 -0.381156 0.59926 0 0 1
-0.318301 -0.371806 0.600471 0 0 1
-0.319528 -0.362924 0.602666 0 0 1
-0.319161 -0.356084 0.60433 0 0 1
-0.318323 -0.351583 0.605789 0 0 1
-0.317009 -0.347695 0.607323 0 0 1
-0.314209 -0.344791 0.607466 0 0 1
-0.309024 -0.343336 0.607533 0 0 1
-0.299348 -0.344204 0.608268 0 0 1
-0.275516 -0.345444 0.600399 0 0 1
-0.248336 -0.341505 0.567666 0 0 1
-0.243037 -0.335723 0.534897 0 0 1
-0.248785 -0.330387 0.516775 0 0 1
-0.251913 -0.326143 0.510963 0 0 1
-0.249804 -0.323635 0.513486 0 0 1
-0.243407 -0.321395 0.527747 0 0 1
-0.242365 -0.320433 0.554995 0 0 1
-0.252562 -0.319445 0.587196 0 0 1
-0.2673 -0.315951 0.608111 0 0 1
-0.280568 -0.310751 0.618083 0 0 1
-0.288535 -0.304904 0.622014 0 0 1
-0.293649 -0.300008 0.623659 0 0 1
-0.297559 -0.29675 0.624384 0 0 1
-0.29889 -0.293466 0.625039 0 0 1
-0.298145 -0.290309 0.625941 0 0 1
-0.297536 -0.286695 0.626966 0 0 1
-0.296965 -0.282941 0.627801 0 0 1
-0.297014 -0.278284 0.628855 0 0 1
-0.297355 -0.273249 0.630144 0 0 1
-0.296838 -0.267578 0.6314 0 0 1
-0.295809 -0.262879 0.632393 0 0 1
-0.294704 -0.259152 0.633399 0 0 1
-0.293084 -0.25545 0.634032 0 0 1
-0.292248 -0.252126 0.63456 0 0 1
-0.291737 -0.248673 0.635137 0 0 1
-0.291438 -0.244703 0.635865 0 0 1
-0.292266 -0.240441 0.636505 0 0 1
-0.293941 -0.237083 0.636979 0 0 1
-0.294571 -0.233898 0.637606 0 0 1
-0.294286 -0.229478 0.638298 0 0 1
-0.293682 -0.22445 0.6395 0 0 1
-0.291195 -0.221005 0.639905 0 0 1
-0.286148 -0.218663 0.639645 0 0 1
-0.279562 -0.217584 0.638786 0 0 1
-0.277004 -0.212223 0.638975 0 0 1
-0.275289 -0.20806 0.639038 0 0 1
-0.278127 -0.204723 0.640058 0 0 1
-0.281064 -0.202414 0.641007 0 0 1
-0.283365 -0.198538 0.641901 0 0 1
-0.283011 -0.196913 0.641891 0 0 1
-0.282518 -0.192591 0.642237 0 0 1
-0.283022 -0.18847 0.642623 0 0 1
-0.283602 -0.185493 0.642969 0 0 1
-0.284488 -0.182907 0.643553 0 0 1
-0.285892 -0.179129 0.644138 0 0 1
-0.287369 -0.174828 0.644708 0 0 1
-0.289546 -0.169196 0.645485 0 0 1
-0.292478 -0.163221 0.645677 0 0 1
-0.295498 -0.157532 0.64817 0 0 1
-0.307936 -0.155283 0.647171 0 0 1
-0.308715 -0.148875 0.650562 0 0 1
-0.310044 -0.14537 0.65047 0 0 1
-0.310268 -0.140568 0.64992 0 0 1
-0.30809 -0.136599 0.65494 0 0 1
-0.30663 -0.13296 0.655501 0 0 1
-0.306005 -0.133399 0.654428 0 0 1
-0.304012 -0.131077 0.652213 0 0 1
-0.302664 -0.12568 0.657264 0 0 1
-0.30178 -0.121476 0.661445 0 0 1
-0.302487 -0.117075 0.660859 0 0 1
-0.302173 -0.112458 0.661432 0 0 1
-0.301477 -0.108671 0.660416 0 0 1
-0.302402 -0.104697 0.658629 0 0 1
-0.303164 -0.102585 0.657815 0 0 1
-0.304709 -0.0991957 0.658704 0 0 1
-0.305099 -0.0960594 0.65883 0 0 1
-0.303694 -0.0945047 0.660397 0 0 1
-0.302768 -0.0902634 0.661393 0 0 1
-0.30395 -0.0852818 0.660653 0 0 1
-0.30453 -0.0804856 0.662316 0 0 1
-0.303908 -0.0786113 0.661041 0 0 1
-0.303945 -0.0764282 0.661583 0 0 1
-0.304561 -0.0730572 0.662703 0 0 1
-0.305632 -0.0690622 0.664391 0 0 1
-0.30598 -0.0654181 0.665421 0 0 1
-0.305942 -0.0622964 0.666342 0 0 1
-0.305912 -0.0577319 0.667249 0 0 1
-0.306253 -0.0524767 0.668105 0 0 1
-0.306649 -0.0505747 0.668393 0 0 1
-0.306763 -0.0496209 0.668728 0 0 1
-0.306705 -0.045641 0.669263 0 0 1
-0.306558 -0.0392055 0.669413 0 0 1
-0.306698 -0.0353947 0.668925 0 0 1
-0.306888 -0.0341423 0.668597 0 0 1
-0.307242 -0.0326592 0.668459 0 0 1
-0.307317 -0.028768 0.668736 0 0 1
-0.307167 -0.0250861 0.669252 0 0 1
-0.306753 -0.021988 0.670416 0 0 1
-0.306733 -0.018881 0.672363 0 0 1
-0.30622 -0.0159847 0.673531 0 0 1
-0.305181 -0.0135258 0.673608 0 0 1
-0.304322 -0.0110632 0.673932 0 0 1
-0.303262 -0.00834264 0.674649 0 0 1
-0.302508 -0.00536573 0.675526 0 0 1
-0.30124 -0.00356521 0.675734 0 0 1
-0.300512 -0.000487089 0.676643 0 0 1
-0.30025 0.00295222 0.677461 0 0 1
-0.299734 0.00678459 0.678002 0 0 1
-0.299016 0.011164 0.678569 0 0 1
-0.298523 0.01493 0.679128 0 0 1
-0.29806 0.0179425 0.679275 0 0 1
-0.297806 0.0204958 0.679348 0 0 1
-0.297836 0.023439 0.679927 0 0 1
-0.298162 0.0268959 0.681378 0 0 1
-0.298208 0.0310625 0.681978 0 0 1
-0.298244 0.0347602 0.682647 0 0 1
-0.298464 0.0379587 0.683206 0 0 1
-0.298759 0.041455 0.683873 0 0 1
-0.298892 0.0449743 0.684034 0 0 1
-0.298767 0.0481171 0.684153 0 0 1
-0.298653 0.0530489 0.684242 0 0 1
-0.298692 0.0546809 0.684244 0 0 1
-0.29905 0.0578401 0.684068 0 0 1
-0.299298 0.0617464 0.684095 0 0 1
-0.299653 0.0653638 0.684115 0 0 1
-0.299794 0.0678259 0.683892 0 0 1
-0.299753 0.0707287 0.683412 0 0 1
-0.299941 0.0743545 0.682928 0 0 1
-0.300182 0.0774211 0.682669 0 0 1
-0.299877 0.0803776 0.681868 0 0 1
-0.299598 0.0839641 0.681088 0 0 1
-0.299656 0.087938 0.680512 0 0 1
-0.299717 0.0915021 0.680034 0 0 1
-0.299889 0.0950932 0.679904 0 0 1
-0.300063 0.098826 0.679696 0 0 1
-0.300378 0.103144 0.679856 0 0 1
-0.301144 0.107239 0.680776 0 0 1
-0.301552 0.110498 0.681571 0 0 1
-0.30152 0.113158 0.681567 0 0 1
-0.301552 0.116145 0.681863 0 0 1
-0.301563 0.119144 0.682124 0 0 1
-0.301576 0.12247 0.682482 0 0 1
-0.301794 0.126271 0.683173 0 0 1
-0.301651 0.130468 0.683972 0 0 1
-0.301158 0.1348 0.683887 0 0 1
-0.301026 0.140144 0.684645 0 0 1
-0.300836 0.143743 0.685627 0 0 1
-0.300702 0.146288 0.686078 0 0 1
-0.300211 0.149651 0.686403 0 0 1
-0.299074 0.153162 0.685851 0 0 1
-0.298528 0.155638 0.685688 0 0 1
-0.298363 0.158539 0.685692 0 0 1
-0.298047 0.161956 0.685223 0 0 1
-0.29812 0.16489 0.685337 0 0 1
-0.299259 0.167178 0.686048 0 0 1
-0.297982 0.171549 0.684926 0 0 1
-0.297646 0.175675 0.684982 0 0 1
-0.297031 0.180293 0.683724 0 0 1
-0.296281 0.183952 0.682834 0 0 1
-0.295649 0.18772 0.682553 0 0 1
-0.29474 0.190975 0.682098 0 0 1
-0.294048 0.194154 0.681996 0 0 1
-0.294196 0.19689 0.683144 0 0 1
-0.295804 0.198388 0.685453 0 0 1
-0.295165 0.201984 0.685819 0 0 1
-0.293079 0.207342 0.685326 0 0 1
-0.2915 0.21218 0.685004 0 0 1
-0.28924 0.216993 0.684124 0 0 1
-0.283462 0.220977 0.677084 0 0 1
-0.269431 0.223099 0.658486 0 0 1
-0.25891 0.228631 0.638927 0 0 1
-0.256336 0.234822 0.635941 0 0 1
-0.258295 0.239298 0.644399 0 0 1
-0.260774 0.242946 0.651073 0 0 1
-0.264566 0.245043 0.659422 0 0 1
-0.26875 0.245501 0.667094 0 0 1
-0.271584 0.248761 0.672006 0 0 1
-0.273475 0.251433 0.676528 0 0 1
-0.274385 0.255873 0.680997 0 0 1
-0.27429 0.261141 0.685301 0 0 1
-0.27292 0.271098 0.689655 0 0 1
-0.271731 0.282233 0.693168 0 0 1
-0.271736 0.28947 0.695857 0 0 1
-0.273248 0.293551 0.697645 0 0 1
-0.275466 0.293783 0.699453 0 0 1
-0.277272 0.294744 0.701649 0 0 1
-0.279949 0.292943 0.702951 0 0 1
-0.281784 0.294662 0.704684 0 0 1
-0.28443 0.300147 0.706651 0 0 1
-0.28618 0.308352 0.713845 0 0 1
-0.302687 0.373455 0.695084 0 0 1
-0.307825 0.405961 0.689844 0 0 1
-0.310954 0.41853 0.688326 0 0 1
-0.313708 0.425833 0.68797 0 0 1
-0.314313 0.429574 0.687313 0 0 1
-0.313823 0.430908 0.687294 0 0 1
-0.313593 0.432349 0.688688 0 0 1
-0.313894 0.430009 0.689009 0 0 1
-0.314724 0.424133 0.688643 0 0 1
-0.314495 0.423028 0.688606 0 0 1
-0.312838 0.423334 0.68741 0 0 1
-0.312235 0.422566 0.68736 0 0 1
-0.312437 0.422929 0.687344 0 0 1
-0.312628 0.424466 0.68755 0 0 1
-0.312455 0.425776 0.68742 0 0 1
-0.312221 0.425642 0.687687 0 0 1
-0.312242 0.424735 0.687517 0 0 1
-0.312435 0.424799 0.687964 0 0 1
-0.314655 0.425714 0.688912 0 0 1
-0.314436 0.425643 0.688576 0 0 1
-0.3156 0.419253 0.689636 0 0 1
-0.314928 0.412138 0.691149 0 0 1
-0.314412 0.407532 0.691966 0 0 1
-0.314449 0.407037 0.691671 0 0 1
-0.314726 0.408903 0.691606 0 0 1
-0.316173 0.41211 0.691815 0 0 1
-0.316166 0.413656 0.691514 0 0 1
-0.314779 0.413807 0.690639 0 0 1
-0.314301 0.416538 0.690079 0 0 1
-0.313543 0.41907 0.689275 0 0 1
-0.312254 0.423486 0.687675 0 0 1
-0.312592 0.42519 0.686872 0 0 1
-0.316007 0.428842 0.688846 0 0 1
-0.316631 0.437619 0.685508 0 0 1
-0.317218 0.446782 0.67878 0 0 1
-0.316204 0.456672 0.672419 0 0 1
-0.315874 0.46391 0.668743 0 0 1
-0.315242 0.46973 0.668228 0 0 1
-0.314844 0.475484 0.665449 0 0 1
-0.317606 0.47602 0.671827 0 0 1
-0.319675 0.491191 0.67695 0 0 1
-0.314572 0.508784 0.679992 0 0 1
-0.311427 0.5255 0.67124 0 0 1
-0.289162 -0.672 0.535179 0 0 1
-0.289828 -0.662758 0.541028 0 0 1
-0.289031 -0.654958 0.538199 0 0 1
-0.287471 -0.649039 0.537368 0 0 1
-0.287119 -0.641822 0.536559 0 0 1
-0.287829 -0.635835 0.536101 0 0 1
-0.289931 -0.630818 0.536662 0 0 1
-0.29249 -0.625291 0.53727 0 0 1
-0.294681 -0.619866 0.537671 0 0 1
-0.296803 -0.615848 0.538212 0 0 1
-0.299571 -0.612873 0.538102 0 0 1
-0.301634 -0.608826 0.538372 0 0 1
-0.304136 -0.605509 0.538499 0 0 1
-0.305636 -0.602205 0.538352 0 0 1
-0.306554 -0.600349 0.538167 0 0 1
-0.307307 -0.601552 0.537161 0 0 1
-0.308232 -0.600769 0.534879 0 0 1
-0.308187 -0.598178 0.536932 0 0 1
-0.30729 -0.595147 0.538009 0 0 1
-0.307484 -0.592268 0.537913 0 0 1
-0.30725 -0.58992 0.537872 0 0 1
-0.308369 -0.589297 0.538066 0 0 1
-0.309361 -0.586893 0.538789 0 0 1
-0.309999 -0.582481 0.538548 0 0 1
-0.310551 -0.577802 0.53885 0 0 1
-0.310488 -0.573452 0.539221 0 0 1
-0.309973 -0.569348 0.539948 0 0 1
-0.309577 -0.565289 0.540364 0 0 1
-0.309138 -0.560826 0.540732 0 0 1
-0.310014 -0.556551 0.542279 0 0 1
-0.310605 -0.551741 0.543101 0 0 1
-0.310036 -0.548251 0.543974 0 0 1
-0.307008 -0.552975 0.543404 0 0 1
-0.301155 -0.55919 0.541831 0 0 1
-0.290697 -0.568275 0.538171 0 0 1
-0.273153 -0.57704 0.523208 0 0 1
-0.260164 -0.585906 0.496765 0 0 1
-0.261319 -0.595074 0.472176 0 0 1
-0.266722 -0.601573 0.459799 0 0 1
-0.269415 -0.603372 0.457361 0 0 1
-0.269906 -0.600135 0.457336 0 0 1
-0.269276 -0.592996 0.458263 0 0 1
-0.265349 -0.583369 0.462021 0 0 1
-0.264049 -0.577729 0.464388 0 0 1
-0.265826 -0.579176 0.462532 0 0 1
-0.26794 -0.582139 0.460394 0 0 1
-0.269369 -0.579383 0.459366 0 0 1
-0.269693 -0.571705 0.462041 0 0 1
-0.269662 -0.57394 0.460528 0 0 1
-0.270488 -0.574192 0.459671 0 0 1
-0.272398 -0.574834 0.457765 0 0 1
-0.275042 -0.575206 0.455619 0 0 1
-0.276556 -0.572304 0.455008 0 0 1
-0.276728 -0.566368 0.455771 0 0 1
-0.276307 -0.560484 0.457306 0 0 1
-0.274373 -0.551747 0.461287 0 0 1
-0.267677 -0.537486 0.473091 0 0 1
-0.26463 -0.525778 0.491904 0 0 1
-0.266616 -0.516126 0.506468 0 0 1
-0.270128 -0.510544 0.51578 0 0 1
-0.271506 -0.508363 0.516161 0 0 1
-0.272859 -0.508622 0.51316 0 0 1
-0.273769 -0.505294 0.51288 0 0 1
-0.278795 -0.497171 0.522488 0 0 1
-0.290813 -0.48886 0.543239 0 0 1
-0.293504 -0.477837 0.556045 0 0 1
-0.288622 -0.466783 0.566536 0 0 1
-0.288552 -0.459447 0.575577 0 0 1
-0.287971 -0.454207 0.579183 0 0 1
-0.28177 -0.450513 0.578965 0 0 1
-0.280299 -0.446188 0.579992 0 0 1
-0.285038 -0.438269 0.58379 0 0 1
-0.293314 -0.427376 0.589232 0 0 1
-0.299547 -0.418048 0.592748 0 0 1
-0.302535 -0.412305 0.594105 0 0 1
-0.303112 -0.40899 0.595086 0 0 1
-0.30252 -0.406593 0.595706 0 0 1
-0.301779 -0.404231 0.595975 0 0 1
-0.301312 -0.400706 0.597443 0 0 1
-0.301722 -0.395812 0.599751 0 0 1
-0.302096 -0.39093 0.600549 0 0 1
-0.302042 -0.388441 0.600912 0 0 1
-0.302487 -0.387308 0.600913 0 0 1
-0.306416 -0.383286 0.601182 0 0 1
-0.313151 -0.37384 0.601409 0 0 1
-0.316172 -0.364653 0.602817 0 0 1
-0.316639 -0.358126 0.604667 0 0 1
-0.315828 -0.353787 0.606516 0 0 1
-0.313314 -0.350339 0.607659 0 0 1
-0.311911 -0.347283 0.608727 0 0 1
-0.308832 -0.344963 0.608281 0 0 1
-0.303674 -0.34397 0.607141 0 0 1
-0.292698 -0.34535 0.609834 0 0 1
-0.270603 -0.345071 0.600914 0 0 1
-0.247917 -0.340868 0.574577 0 0 1
-0.241747 -0.335291 0.545714 0 0 1
-0.244236 -0.329623 0.526923 0 0 1
-0.248045 -0.325793 0.517092 0 0 1
-0.248634 -0.32335 0.515107 0 0 1
-0.245422 -0.320738 0.521384 0 0 1
-0.241178 -0.319073 0.538476 0 0 1
-0.242065 -0.31744 0.564823 0 0 1
-0.251589 -0.314524 0.592231 0 0 1
-0.265895 -0.31087 0.610254 0 0 1
-0.279477 -0.306414 0.619061 0 0 1
-0.288575 -0.30152 0.622693 0 0 1
-0.293182 -0.297414 0.624345 0 0 1
-0.294292 -0.29405 0.62503 0 0 1
-0.293689 -0.29071 0.626095 0 0 1
-0.293193 -0.286951 0.62705 0 0 1
-0.293421 -0.281897 0.628298 0 0 1
-0.293708 -0.27693 0.629262 0 0 1
-0.293783 -0.271829 0.630617 0 0 1
-0.292518 -0.266691 0.631689 0 0 1
-0.291619 -0.262208 0.632613 0 0 1
-0.290545 -0.258475 0.633349 0 0 1
-0.28861 -0.255417 0.633893 0 0 1
-0.286978 -0.251986 0.634533 0 0 1
-0.286424 -0.248765 0.63495 0 0 1
-0.286684 -0.24479 0.635566 0 0 1
-0.286882 -0.23981 0.636485 0 0 1
-0.289803 -0.236778 0.637201 0 0 1
-0.291179 -0.232733 0.637783 0 0 1
-0.291186 -0.228154 0.63868 0 0 1
-0.290394 -0.223798 0.639446 0 0 1
-0.288922 -0.220008 0.639877 0 0 1
-0.283885 -0.217221 0.639483 0 0 1
-0.27552 -0.216329 0.638121 0 0 1
-0.274555 -0.211827 0.63849 0 0 1
-0.271901 -0.207437 0.638277 0 0 1
-0.273385 -0.203184 0.639087 0 0 1
-0.276712 -0.200606 0.640241 0 0 1
-0.278525 -0.19825 0.640798 0 0 1
-0.27933 -0.195746 0.641209 0 0 1
-0.279599 -0.192188 0.641561 0 0 1
-0.280572 -0.186966 0.642293 0 0 1
-0.280258 -0.185228 0.642392 0 0 1
-0.280257 -0.182803 0.642539 0 0 1
-0.280793 -0.179864 0.642929 0 0 1
-0.28198 -0.17572 0.643414 0 0 1
-0.284075 -0.170662 0.644188 0 0 1
-0.286808 -0.16509 0.644967 0 0 1
-0.28998 -0.159387 0.644493 0 0 1
-0.294128 -0.154056 0.650412 0 0 1
-0.301828 -0.151208 0.648856 0 0 1
