-0.90625 0.203125 0.547123 0 0 1
-0.90625 0.210938 0.548191 0 0 1
-0.90625 0.21875 0.548184 0 0 1
-0.90625 0.226562 0.548175 0 0 1
-0.90625 0.234375 0.548406 0 0 1
-0.90625 0.242188 0.547441 0 0 1
-0.90625 0.25 0.545946 0 0 1
-0.90625 0.257812 0.54465 0 0 1
-0.90625 0.265625 0.543432 0 0 1
-0.90625 0.273438 0.54076 0 0 1
-0.90625 0.28125 0.537954 0 0 1
-0.90625 0.289062 0.535047 0 0 1
-0.90625 0.296875 0.531197 0 0 1
-0.90625 0.304688 0.524824 0 0 1
-0.898438 0.117188 0.497197 0 0 1
-0.898438 0.125 0.507765 0 0 1
-0.898438 0.132812 0.514457 0 0 1
-0.898438 0.140625 0.520194 0 0 1
-0.898438 0.148438 0.524945 0 0 1
-0.898438 0.15625 0.529098 0 0 1
-0.898438 0.164062 0.532873 0 0 1
-0.898438 0.171875 0.536138 0 0 1
-0.898438 0.179688 0.539043 0 0 1
-0.898438 0.1875 0.541704 0 0 1
-0.898438 0.195312 0.543986 0 0 1
-0.898438 0.203125 0.545776 0 0 1
-0.898438 0.210938 0.547474 0 0 1
-0.898438 0.21875 0.548009 0 0 1
-0.898438 0.226562 0.548174 0 0 1
-0.898438 0.234375 0.548257 0 0 1
-0.898438 0.242188 0.547496 0 0 1
-0.898438 0.25 0.546292 0 0 1
-0.898438 0.257812 0.545034 0 0 1
-0.898438 0.265625 0.54388 0 0 1
-0.898438 0.273438 0.541377 0 0 1
-0.898438 0.28125 0.539376 0 0 1
-0.898438 0.289062 0.536426 0 0 1
-0.898438 0.296875 0.533744 0 0 1
-0.898438 0.304688 0.530434 0 0 1
-0.898438 0.3125 0.52513 0 0 1
-0.890625 0.125 0.496146 0 0 1
-0.890625 0.132812 0.506355 0 0 1
-0.890625 0.140625 0.513408 0 0 1
-0.890625 0.148438 0.519166 0 0 1
-0.890625 0.15625 0.524177 0 0 1
-0.890625 0.164062 0.528503 0 0 1
-0.890625 0.171875 0.532843 0 0 1
-0.890625 0.179688 0.536062 0 0 1
-0.890625 0.1875 0.538998 0 0 1
-0.890625 0.195312 0.54155 0 0 1
-0.890625 0.203125 0.543777 0 0 1
-0.890625 0.210938 0.545636 0 0 1
-0.890625 0.21875 0.546964 0 0 1
-0.890625 0.226562 0.547665 0 0 1
-0.890625 0.234375 0.547759 0 0 1
-0.890625 0.242188 0.547269 0 0 1
-0.890625 0.25 0.546431 0 0 1
-0.890625 0.257812 0.545146 0 0 1
-0.890625 0.265625 0.543582 0 0 1
-0.890625 0.273438 0.541275 0 0 1
-0.890625 0.28125 0.539419 0 0 1
-0.890625 0.289062 0.537055 0 0 1
-0.890625 0.296875 0.535236 0 0 1
-0.890625 0.304688 0.532463 0 0 1
-0.890625 0.3125 0.529224 0 0 1
-0.890625 0.320312 0.524621 0 0 1
-0.882812 0.132812 0.49589 0 0 1
-0.882812 0.140625 0.50539 0 0 1
-0.882812 0.148438 0.512366 0 0 1
-0.882812 0.15625 0.518419 0 0 1
-0.882812 0.164062 0.523365 0 0 1
-0.882812 0.171875 0.52845 0 0 1
-0.882812 0.179688 0.532431 0 0 1
-0.882812 0.1875 0.536051 0 0 1
-0.882812 0.195312 0.538948 0 0 1
-0.882812 0.203125 0.541543 0 0 1
-0.882812 0.210938 0.543911 0 0 1
-0.882812 0.21875 0.54531 0 0 1
-0.882812 0.226562 0.546279 0 0 1
-0.882812 0.234375 0.546816 0 0 1
-0.882812 0.242188 0.546539 0 0 1
-0.882812 0.25 0.545763 0 0 1
-0.882812 0.257812 0.54468 0 0 1
-0.882812 0.265625 0.543454 0 0 1
-0.882812 0.273438 0.541378 0 0 1
-0.882812 0.28125 0.539286 0 0 1
-0.882812 0.289062 0.537278 0 0 1
-0.882812 0.296875 0.535458 0 0 1
-0.882812 0.304688 0.533132 0 0 1
-0.882812 0.3125 0.530866 0 0 1
-0.882812 0.320312 0.528101 0 0 1
-0.882812 0.328125 0.524148 0 0 1
-0.875 0.140625 0.493016 0 0 1
-0.875 0.148438 0.504159 0 0 1
-0.875 0.15625 0.511425 0 0 1
-0.875 0.164062 0.517487 0 0 1
-0.875 0.171875 0.5226 0 0 1
-0.875 0.179688 0.528089 0 0 1
-0.875 0.1875 0.532084 0 0 1
-0.875 0.195312 0.535748 0 0 1
-0.875 0.203125 0.538665 0 0 1
-0.875 0.210938 0.540741 0 0 1
-0.875 0.21875 0.542497 0 0 1
-0.875 0.226562 0.543856 0 0 1
-0.875 0.234375 0.544502 0 0 1
-0.875 0.242188 0.545143 0 0 1
-0.875 0.25 0.54494 0 0 1
-0.875 0.257812 0.543983 0 0 1
-0.875 0.265625 0.542731 0 0 1
-0.875 0.273438 0.541058 0 0 1
-0.875 0.28125 0.539324 0 0 1
-0.875 0.289062 0.537014 0 0 1
-0.875 0.296875 0.535049 0 0 1
-0.875 0.304688 0.533125 0 0 1
-0.875 0.3125 0.531121 0 0 1
-0.875 0.320312 0.528945 0 0 1
-0.875 0.328125 0.526896 0 0 1
-0.875 0.335938 0.524309 0 0 1
-0.875 0.34375 0.511303 0 0 1
-0.867188 0.148438 0.492319 0 0 1
-0.867188 0.15625 0.503399 0 0 1
-0.867188 0.164062 0.510123 0 0 1
-0.867188 0.171875 0.516191 0 0 1
-0.867188 0.179688 0.522412 0 0 1
-0.867188 0.1875 0.527735 0 0 1
-0.867188 0.195312 0.531858 0 0 1
-0.867188 0.203125 0.535134 0 0 1
-0.867188 0.210938 0.537371 0 0 1
-0.867188 0.21875 0.539616 0 0 1
-0.867188 0.226562 0.541051 0 0 1
-0.867188 0.234375 0.541993 0 0 1
-0.867188 0.242188 0.543296 0 0 1
-0.867188 0.25 0.543757 0 0 1
-0.867188 0.257812 0.542966 0 0 1
-0.867188 0.265625 0.541827 0 0 1
-0.867188 0.273438 0.540786 0 0 1
-0.867188 0.28125 0.53902 0 0 1
-0.867188 0.289062 0.536926 0 0 1
-0.867188 0.296875 0.534492 0 0 1
-0.867188 0.304688 0.532282 0 0 1
-0.867188 0.3125 0.53054 0 0 1
-0.867188 0.320312 0.529242 0 0 1
-0.867188 0.328125 0.528038 0 0 1
-0.867188 0.335938 0.526946 0 0 1
-0.867188 0.34375 0.525456 0 0 1
-0.867188 0.351562 0.514679 0 0 1
-0.859375 0.15625 0.491426 0 0 1
-0.859375 0.164062 0.50125 0 0 1
-0.859375 0.171875 0.508787 0 0 1
-0.859375 0.179688 0.515582 0 0 1
-0.859375 0.1875 0.522041 0 0 1
-0.859375 0.195312 0.5271 0 0 1
-0.859375 0.203125 0.53114 0 0 1
-0.859375 0.210938 0.533879 0 0 1
-0.859375 0.21875 0.536534 0 0 1
-0.859375 0.226562 0.53855 0 0 1
-0.859375 0.234375 0.539806 0 0 1
-0.859375 0.242188 0.541268 0 0 1
-0.859375 0.25 0.541883 0 0 1
-0.859375 0.257812 0.542015 0 0 1
-0.859375 0.265625 0.541351 0 0 1
-0.859375 0.273438 0.540564 0 0 1
-0.859375 0.28125 0.538869 0 0 1
-0.859375 0.289062 0.537046 0 0 1
-0.859375 0.296875 0.534233 0 0 1
-0.859375 0.304688 0.531386 0 0 1
-0.859375 0.3125 0.529905 0 0 1
-0.859375 0.320312 0.529036 0 0 1
-0.859375 0.328125 0.528314 0 0 1
-0.859375 0.335938 0.528165 0 0 1
-0.859375 0.34375 0.528349 0 0 1
-0.859375 0.351562 0.527494 0 0 1
-0.859375 0.359375 0.519929 0 0 1
-0.851562 0.164062 0.48784 0 0 1
-0.851562 0.171875 0.498838 0 0 1
-0.851562 0.179688 0.507382 0 0 1
-0.851562 0.1875 0.514677 0 0 1
-0.851562 0.195312 0.520657 0 0 1
-0.851562 0.203125 0.525531 0 0 1
-0.851562 0.210938 0.529208 0 0 1
-0.851562 0.21875 0.532194 0 0 1
-0.851562 0.226562 0.534768 0 0 1
-0.851562 0.234375 0.536585 0 0 1
-0.851562 0.242188 0.538293 0 0 1
-0.851562 0.25 0.539484 0 0 1
-0.851562 0.257812 0.540261 0 0 1
-0.851562 0.265625 0.540378 0 0 1
-0.851562 0.273438 0.540036 0 0 1
-0.851562 0.28125 0.53914 0 0 1
-0.851562 0.289062 0.538071 0 0 1
-0.851562 0.296875 0.535308 0 0 1
-0.851562 0.304688 0.531564 0 0 1
-0.851562 0.3125 0.528794 0 0 1
-0.851562 0.320312 0.527719 0 0 1
-0.851562 0.328125 0.528077 0 0 1
-0.851562 0.335938 0.528937 0 0 1
-0.851562 0.34375 0.529739 0 0 1
-0.851562 0.351562 0.530595 0 0 1
-0.851562 0.359375 0.530582 0 0 1
-0.851562 0.367188 0.52485 0 0 1
-0.84375 0.171875 0.48425 0 0 1
-0.84375 0.179688 0.497055 0 0 1
-0.84375 0.1875 0.505696 0 0 1
-0.84375 0.195312 0.512991 0 0 1
-0.84375 0.203125 0.518789 0 0 1
-0.84375 0.210938 0.523583 0 0 1
-0.84375 0.21875 0.526945 0 0 1
-0.84375 0.226562 0.530018 0 0 1
-0.84375 0.234375 0.532807 0 0 1
-0.84375 0.242188 0.534516 0 0 1
-0.84375 0.25 0.536613 0 0 1
-0.84375 0.257812 0.538263 0 0 1
-0.84375 0.265625 0.539128 0 0 1
-0.84375 0.273438 0.539734 0 0 1
-0.84375 0.28125 0.539604 0 0 1
-0.84375 0.289062 0.53952 0 0 1
-0.84375 0.296875 0.537503 0 0 1
-0.84375 0.304688 0.532514 0 0 1
-0.84375 0.3125 0.529037 0 0 1
-0.84375 0.320312 0.527816 0 0 1
-0.84375 0.328125 0.527902 0 0 1
-0.84375 0.335938 0.529536 0 0 1
-0.84375 0.34375 0.531269 0 0 1
-0.84375 0.351562 0.53279 0 0 1
-0.84375 0.359375 0.534053 0 0 1
-0.84375 0.367188 0.534255 0 0 1
-0.84375 0.375 0.530707 0 0 1
-0.84375 0.382812 0.521455 0 0 1
-0.835938 0.1875 0.493266 0 0 1
-0.835938 0.195312 0.502682 0 0 1
-0.835938 0.203125 0.510565 0 0 1
-0.835938 0.210938 0.516784 0 0 1
-0.835938 0.21875 0.52132 0 0 1
-0.835938 0.226562 0.525353 0 0 1
-0.835938 0.234375 0.528745 0 0 1
-0.835938 0.242188 0.531796 0 0 1
-0.835938 0.25 0.5342 0 0 1
-0.835938 0.257812 0.536056 0 0 1
-0.835938 0.265625 0.537456 0 0 1
-0.835938 0.273438 0.538565 0 0 1
-0.835938 0.28125 0.539612 0 0 1
-0.835938 0.289062 0.540533 0 0 1
-0.835938 0.296875 0.539648 0 0 1
-0.835938 0.304688 0.535584 0 0 1
-0.835938 0.3125 0.531809 0 0 1
-0.835938 0.320312 0.529397 0 0 1
-0.835938 0.328125 0.53002 0 0 1
-0.835938 0.335938 0.531428 0 0 1
-0.835938 0.34375 0.533408 0 0 1
-0.835938 0.351562 0.535078 0 0 1
-0.835938 0.359375 0.53675 0 0 1
-0.835938 0.367188 0.538119 0 0 1
-0.835938 0.375 0.538671 0 0 1
-0.835938 0.382812 0.537382 0 0 1
-0.835938 0.390625 0.534058 0 0 1
-0.835938 0.398438 0.523016 0 0 1
-0.828125 0.195312 0.48775 0 0 1
-0.828125 0.203125 0.500256 0 0 1
-0.828125 0.210938 0.508126 0 0 1
-0.828125 0.21875 0.514413 0 0 1
-0.828125 0.226562 0.520005 0 0 1
-0.828125 0.234375 0.524514 0 0 1
-0.828125 0.242188 0.528246 0 0 1
-0.828125 0.25 0.531088 0 0 1
-0.828125 0.257812 0.533494 0 0 1
-0.828125 0.265625 0.535257 0 0 1
-0.828125 0.273438 0.536788 0 0 1
-0.828125 0.28125 0.538769 0 0 1
-0.828125 0.289062 0.540136 0 0 1
-0.828125 0.296875 0.541214 0 0 1
-0.828125 0.304688 0.539844 0 0 1
-0.828125 0.3125 0.537843 0 0 1
-0.828125 0.320312 0.535319 0 0 1
-0.828125 0.328125 0.533686 0 0 1
-0.828125 0.335938 0.534098 0 0 1
-0.828125 0.34375 0.535405 0 0 1
-0.828125 0.351562 0.537069 0 0 1
-0.828125 0.359375 0.539156 0 0 1
-0.828125 0.367188 0.541491 0 0 1
-0.828125 0.375 0.543759 0 0 1
-0.828125 0.382812 0.545238 0 0 1
-0.828125 0.390625 0.545692 0 0 1
-0.828125 0.398438 0.545271 0 0 1
-0.828125 0.40625 0.542548 0 0 1
-0.828125 0.414062 0.531827 0 0 1
-0.820312 0.203125 0.48408 0 0 1
-0.820312 0.210938 0.497994 0 0 1
-0.820312 0.21875 0.506504 0 0 1
-0.820312 0.226562 0.514224 0 0 1
-0.820312 0.234375 0.519885 0 0 1
-0.820312 0.242188 0.523981 0 0 1
-0.820312 0.25 0.527333 0 0 1
-0.820312 0.257812 0.530144 0 0 1
-0.820312 0.265625 0.532484 0 0 1
-0.820312 0.273438 0.53462 0 0 1
-0.820312 0.28125 0.537076 0 0 1
-0.820312 0.289062 0.53898 0 0 1
-0.820312 0.296875 0.540623 0 0 1
-0.820312 0.304688 0.54136 0 0 1
-0.820312 0.3125 0.54126 0 0 1
-0.820312 0.320312 0.5411 0 0 1
-0.820312 0.328125 0.540692 0 0 1
-0.820312 0.335938 0.540554 0 0 1
-0.820312 0.34375 0.541103 0 0 1
-0.820312 0.351562 0.54239 0 0 1
-0.820312 0.359375 0.544578 0 0 1
-0.820312 0.367188 0.547185 0 0 1
-0.820312 0.375 0.549859 0 0 1
-0.820312 0.382812 0.552505 0 0 1
-0.820312 0.390625 0.554592 0 0 1
-0.820312 0.398438 0.555628 0 0 1
-0.820312 0.40625 0.555409 0 0 1
-0.820312 0.414062 0.553712 0 0 1
-0.820312 0.421875 0.548542 0 0 1
-0.820312 0.429688 0.533231 0 0 1
-0.8125 0.210938 0.482664 0 0 1
-0.8125 0.21875 0.496578 0 0 1
-0.8125 0.226562 0.50608 0 0 1
-0.8125 0.234375 0.513676 0 0 1
-0.8125 0.242188 0.519052 0 0 1
-0.8125 0.25 0.522869 0 0 1
-0.8125 0.257812 0.526084 0 0 1
-0.8125 0.265625 0.529006 0 0 1
-0.8125 0.273438 0.531808 0 0 1
-0.8125 0.28125 0.534644 0 0 1
-0.8125 0.289062 0.537112 0 0 1
-0.8125 0.296875 0.539618 0 0 1
-0.8125 0.304688 0.541756 0 0 1
-0.8125 0.3125 0.542858 0 0 1
-0.8125 0.320312 0.543716 0 0 1
-0.8125 0.328125 0.544613 0 0 1
-0.8125 0.335938 0.546106 0 0 1
-0.8125 0.34375 0.547751 0 0 1
-0.8125 0.351562 0.550349 0 0 1
-0.8125 0.359375 0.552767 0 0 1
-0.8125 0.367188 0.554539 0 0 1
-0.8125 0.375 0.557253 0 0 1
-0.8125 0.382812 0.559515 0 0 1
-0.8125 0.390625 0.561009 0 0 1
-0.8125 0.398438 0.562315 0 0 1
-0.8125 0.40625 0.563017 0 0 1
-0.8125 0.414062 0.563215 0 0 1
-0.8125 0.421875 0.56164 0 0 1
-0.8125 0.429688 0.558264 0 0 1
-0.8125 0.4375 0.552139 0 0 1
-0.804688 0.226562 0.496143 0 0 1
-0.804688 0.234375 0.505622 0 0 1
-0.804688 0.242188 0.512891 0 0 1
-0.804688 0.25 0.5176 0 0 1
-0.804688 0.257812 0.521694 0 0 1
-0.804688 0.265625 0.525267 0 0 1
-0.804688 0.273438 0.528583 0 0 1
-0.804688 0.28125 0.531551 0 0 1
-0.804688 0.289062 0.534514 0 0 1
-0.804688 0.296875 0.53775 0 0 1
-0.804688 0.304688 0.540522 0 0 1
-0.804688 0.3125 0.542589 0 0 1
-0.804688 0.320312 0.544416 0 0 1
-0.804688 0.328125 0.546165 0 0 1
-0.804688 0.335938 0.548267 0 0 1
-0.804688 0.34375 0.55092 0 0 1
-0.804688 0.351562 0.553641 0 0 1
-0.804688 0.359375 0.555883 0 0 1
-0.804688 0.367188 0.558639 0 0 1
-0.804688 0.375 0.560673 0 0 1
-0.804688 0.382812 0.563215 0 0 1
-0.804688 0.390625 0.564932 0 0 1
-0.804688 0.398438 0.566719 0 0 1
-0.804688 0.40625 0.5679 0 0 1
-0.804688 0.414062 0.567898 0 0 1
-0.804688 0.421875 0.567493 0 0 1
-0.804688 0.429688 0.566621 0 0 1
-0.804688 0.4375 0.564769 0 0 1
-0.804688 0.445312 0.560906 0 0 1
-0.804688 0.453125 0.549809 0 0 1
-0.796875 0.234375 0.490733 0 0 1
-0.796875 0.242188 0.502652 0 0 1
-0.796875 0.25 0.510498 0 0 1
-0.796875 0.257812 0.516033 0 0 1
-0.796875 0.265625 0.520388 0 0 1
-0.796875 0.273438 0.524584 0 0 1
-0.796875 0.28125 0.527889 0 0 1
-0.796875 0.289062 0.531348 0 0 1
-0.796875 0.296875 0.534601 0 0 1
-0.796875 0.304688 0.538002 0 0 1
-0.796875 0.3125 0.540771 0 0 1
-0.796875 0.320312 0.543357 0 0 1
-0.796875 0.328125 0.54595 0 0 1
-0.796875 0.335938 0.548586 0 0 1
-0.796875 0.34375 0.55148 0 0 1
-0.796875 0.351562 0.554407 0 0 1
-0.796875 0.359375 0.557226 0 0 1
-0.796875 0.367188 0.560044 0 0 1
-0.796875 0.375 0.562512 0 0 1
-0.796875 0.382812 0.56522 0 0 1
-0.796875 0.390625 0.567405 0 0 1
-0.796875 0.398438 0.569039 0 0 1
-0.796875 0.40625 0.570569 0 0 1
-0.796875 0.414062 0.571433 0 0 1
-0.796875 0.421875 0.572193 0 0 1
-0.796875 0.429688 0.57177 0 0 1
-0.796875 0.4375 0.571085 0 0 1
-0.796875 0.445312 0.569769 0 0 1
-0.796875 0.453125 0.567262 0 0 1
-0.796875 0.460938 0.560688 0 0 1
-0.789062 0.25 0.495955 0 0 1
-0.789062 0.257812 0.506484 0 0 1
-0.789062 0.265625 0.513456 0 0 1
-0.789062 0.273438 0.518549 0 0 1
-0.789062 0.28125 0.522793 0 0 1
-0.789062 0.289062 0.527106 0 0 1
-0.789062 0.296875 0.530719 0 0 1
-0.789062 0.304688 0.534333 0 0 1
-0.789062 0.3125 0.537719 0 0 1
-0.789062 0.320312 0.540854 0 0 1
-0.789062 0.328125 0.543948 0 0 1
-0.789062 0.335938 0.547336 0 0 1
-0.789062 0.34375 0.550542 0 0 1
-0.789062 0.351562 0.553671 0 0 1
-0.789062 0.359375 0.556716 0 0 1
-0.789062 0.367188 0.560009 0 0 1
-0.789062 0.375 0.563069 0 0 1
-0.789062 0.382812 0.565922 0 0 1
-0.789062 0.390625 0.568197 0 0 1
-0.789062 0.398438 0.570541 0 0 1
-0.789062 0.40625 0.572292 0 0 1
-0.789062 0.414062 0.573817 0 0 1
-0.789062 0.421875 0.575008 0 0 1
-0.789062 0.429688 0.575386 0 0 1
-0.789062 0.4375 0.575363 0 0 1
-0.789062 0.445312 0.574719 0 0 1
-0.789062 0.453125 0.57379 0 0 1
-0.789062 0.460938 0.572111 0 0 1
-0.789062 0.46875 0.569084 0 0 1
-0.789062 0.476562 0.559745 0 0 1
-0.78125 0.265625 0.497531 0 0 1
-0.78125 0.273438 0.509079 0 0 1
-0.78125 0.28125 0.515742 0 0 1
-0.78125 0.289062 0.520307 0 0 1
-0.78125 0.296875 0.524804 0 0 1
-0.78125 0.304688 0.528911 0 0 1
-0.78125 0.3125 0.533219 0 0 1
-0.78125 0.320312 0.53708 0 0 1
-0.78125 0.328125 0.54069 0 0 1
-0.78125 0.335938 0.544553 0 0 1
-0.78125 0.34375 0.548054 0 0 1
-0.78125 0.351562 0.551925 0 0 1
-0.78125 0.359375 0.555339 0 0 1
-0.78125 0.367188 0.558571 0 0 1
-0.78125 0.375 0.562038 0 0 1
-0.78125 0.382812 0.565018 0 0 1
-0.78125 0.390625 0.567756 0 0 1
-0.78125 0.398438 0.570423 0 0 1
-0.78125 0.40625 0.572865 0 0 1
-0.78125 0.414062 0.574656 0 0 1
-0.78125 0.421875 0.575667 0 0 1
-0.78125 0.429688 0.577108 0 0 1
-0.78125 0.4375 0.577865 0 0 1
-0.78125 0.445312 0.578208 0 0 1
-0.78125 0.453125 0.577783 0 0 1
-0.78125 0.460938 0.577236 0 0 1
-0.78125 0.46875 0.576124 0 0 1
-0.78125 0.476562 0.574046 0 0 1
-0.78125 0.484375 0.569906 0 0 1
-0.78125 0.492188 0.557052 0 0 1
-0.773438 0.28125 0.501701 0 0 1
-0.773438 0.289062 0.510422 0 0 1
-0.773438 0.296875 0.516625 0 0 1
-0.773438 0.304688 0.521353 0 0 1
-0.773438 0.3125 0.526564 0 0 1
-0.773438 0.320312 0.531643 0 0 1
-0.773438 0.328125 0.536035 0 0 1
-0.773438 0.335938 0.540342 0 0 1
-0.773438 0.34375 0.544342 0 0 1
-0.773438 0.351562 0.548435 0 0 1
-0.773438 0.359375 0.552409 0 0 1
-0.773438 0.367188 0.55626 0 0 1
-0.773438 0.375 0.559828 0 0 1
-0.773438 0.382812 0.563254 0 0 1
-0.773438 0.390625 0.566386 0 0 1
-0.773438 0.398438 0.569456 0 0 1
-0.773438 0.40625 0.572126 0 0 1
-0.773438 0.414062 0.574145 0 0 1
-0.773438 0.421875 0.576139 0 0 1
-0.773438 0.429688 0.577653 0 0 1
-0.773438 0.4375 0.578865 0 0 1
-0.773438 0.445312 0.579664 0 0 1
-0.773438 0.453125 0.580454 0 0 1
-0.773438 0.460938 0.580496 0 0 1
-0.773438 0.46875 0.579848 0 0 1
-0.773438 0.476562 0.579345 0 0 1
-0.773438 0.484375 0.578492 0 0 1
-0.773438 0.492188 0.576797 0 0 1
-0.773438 0.5 0.570956 0 0 1
-0.773438 0.507812 0.552753 0 0 1
-0.765625 0.289062 0.490868 0 0 1
-0.765625 0.296875 0.503613 0 0 1
-0.765625 0.304688 0.512111 0 0 1
-0.765625 0.3125 0.518345 0 0 1
-0.765625 0.320312 0.523948 0 0 1
-0.765625 0.328125 0.529834 0 0 1
-0.765625 0.335938 0.534975 0 0 1
-0.765625 0.34375 0.539702 0 0 1
-0.765625 0.351562 0.544366 0 0 1
-0.765625 0.359375 0.548773 0 0 1
-0.765625 0.367188 0.552894 0 0 1
-0.765625 0.375 0.556959 0 0 1
-0.765625 0.382812 0.560755 0 0 1
-0.765625 0.390625 0.564285 0 0 1
-0.765625 0.398438 0.567737 0 0 1
-0.765625 0.40625 0.570628 0 0 1
-0.765625 0.414062 0.573283 0 0 1
-0.765625 0.421875 0.575205 0 0 1
-0.765625 0.429688 0.577253 0 0 1
-0.765625 0.4375 0.578733 0 0 1
-0.765625 0.445312 0.58012 0 0 1
-0.765625 0.453125 0.581254 0 0 1
-0.765625 0.460938 0.582048 0 0 1
-0.765625 0.46875 0.582756 0 0 1
-0.765625 0.476562 0.58293 0 0 1
-0.765625 0.484375 0.582816 0 0 1
-0.765625 0.492188 0.582138 0 0 1
-0.765625 0.5 0.581029 0 0 1
-0.765625 0.507812 0.578805 0 0 1
-0.765625 0.515625 0.573107 0 0 1
-0.765625 0.523438 0.556916 0 0 1
-0.757812 0.304688 0.495805 0 0 1
-0.757812 0.3125 0.506573 0 0 1
-0.757812 0.320312 0.514325 0 0 1
-0.757812 0.328125 0.521791 0 0 1
-0.757812 0.335938 0.528048 0 0 1
-0.757812 0.34375 0.53382 0 0 1
-0.757812 0.351562 0.539054 0 0 1
-0.757812 0.359375 0.544163 0 0 1
-0.757812 0.367188 0.548746 0 0 1
-0.757812 0.375 0.553203 0 0 1
-0.757812 0.382812 0.557239 0 0 1
-0.757812 0.390625 0.561339 0 0 1
-0.757812 0.398438 0.565001 0 0 1
-0.757812 0.40625 0.56821 0 0 1
-0.757812 0.414062 0.570894 0 0 1
-0.757812 0.421875 0.573472 0 0 1
-0.757812 0.429688 0.575724 0 0 1
-0.757812 0.4375 0.577771 0 0 1
-0.757812 0.445312 0.579674 0 0 1
-0.757812 0.453125 0.581217 0 0 1
-0.757812 0.460938 0.582901 0 0 1
-0.757812 0.46875 0.584072 0 0 1
-0.757812 0.476562 0.584863 0 0 1
-0.757812 0.484375 0.585328 0 0 1
-0.757812 0.492188 0.585613 0 0 1
-0.757812 0.5 0.585612 0 0 1
-0.757812 0.507812 0.584895 0 0 1
-0.757812 0.515625 0.58427 0 0 1
-0.757812 0.523438 0.581908 0 0 1
-0.757812 0.53125 0.577113 0 0 1
-0.757812 0.539062 0.569926 0 0 1
-0.757812 0.546875 0.563931 0 0 1
-0.757812 0.554688 0.557715 0 0 1
-0.75 0.320312 0.499742 0 0 1
-0.75 0.328125 0.511168 0 0 1
-0.75 0.335938 0.519359 0 0 1
-0.75 0.34375 0.526378 0 0 1
-0.75 0.351562 0.532439 0 0 1
-0.75 0.359375 0.538514 0 0 1
-0.75 0.367188 0.543739 0 0 1
-0.75 0.375 0.548617 0 0 1
-0.75 0.382812 0.553086 0 0 1
-0.75 0.390625 0.557369 0 0 1
-0.75 0.398438 0.561441 0 0 1
-0.75 0.40625 0.564938 0 0 1
-0.75 0.414062 0.567947 0 0 1
-0.75 0.421875 0.570852 0 0 1
-0.75 0.429688 0.573464 0 0 1
-0.75 0.4375 0.57605 0 0 1
-0.75 0.445312 0.578526 0 0 1
-0.75 0.453125 0.58049 0 0 1
-0.75 0.460938 0.58259 0 0 1
-0.75 0.46875 0.584193 0 0 1
-0.75 0.476562 0.585498 0 0 1
-0.75 0.484375 0.586753 0 0 1
-0.75 0.492188 0.587451 0 0 1
-0.75 0.5 0.588137 0 0 1
-0.75 0.507812 0.588455 0 0 1
-0.75 0.515625 0.588437 0 0 1
-0.75 0.523438 0.588039 0 0 1
-0.75 0.53125 0.587454 0 0 1
-0.75 0.539062 0.585811 0 0 1
-0.75 0.546875 0.582862 0 0 1
-0.75 0.554688 0.580672 0 0 1
-0.75 0.5625 0.578905 0 0 1
-0.75 0.570312 0.577364 0 0 1
-0.75 0.578125 0.576116 0 0 1
-0.75 0.585938 0.574141 0 0 1
-0.75 0.59375 0.570625 0 0 1
-0.742188 0.328125 0.494571 0 0 1
-0.742188 0.335938 0.507491 0 0 1
-0.742188 0.34375 0.517596 0 0 1
-0.742188 0.351562 0.524709 0 0 1
-0.742188 0.359375 0.531808 0 0 1
-0.742188 0.367188 0.537934 0 0 1
-0.742188 0.375 0.54324 0 0 1
-0.742188 0.382812 0.548091 0 0 1
-0.742188 0.390625 0.552702 0 0 1
-0.742188 0.398438 0.556989 0 0 1
-0.742188 0.40625 0.560897 0 0 1
-0.742188 0.414062 0.564414 0 0 1
-0.742188 0.421875 0.567713 0 0 1
-0.742188 0.429688 0.571049 0 0 1
-0.742188 0.4375 0.573949 0 0 1
-0.742188 0.445312 0.576624 0 0 1
-0.742188 0.453125 0.579101 0 0 1
-0.742188 0.460938 0.581327 0 0 1
-0.742188 0.46875 0.583608 0 0 1
-0.742188 0.476562 0.585357 0 0 1
-0.742188 0.484375 0.586727 0 0 1
-0.742188 0.492188 0.588254 0 0 1
-0.742188 0.5 0.589519 0 0 1
-0.742188 0.507812 0.590225 0 0 1
-0.742188 0.515625 0.590774 0 0 1
-0.742188 0.523438 0.591288 0 0 1
-0.742188 0.53125 0.591721 0 0 1
-0.742188 0.539062 0.591761 0 0 1
-0.742188 0.546875 0.591367 0 0 1
-0.742188 0.554688 0.590761 0 0 1
-0.742188 0.5625 0.58985 0 0 1
-0.742188 0.570312 0.589098 0 0 1
-0.742188 0.578125 0.588744 0 0 1
-0.742188 0.585938 0.588214 0 0 1
-0.742188 0.59375 0.588025 0 0 1
-0.742188 0.601562 0.586853 0 0 1
-0.742188 0.609375 0.585863 0 0 1
-0.742188 0.617188 0.583489 0 0 1
-0.742188 0.625 0.58061 0 0 1
-0.734375 0.335938 0.488856 0 0 1
-0.734375 0.34375 0.505142 0 0 1
-0.734375 0.351562 0.516174 0 0 1
-0.734375 0.359375 0.523897 0 0 1
-0.734375 0.367188 0.531209 0 0 1
-0.734375 0.375 0.537273 0 0 1
-0.734375 0.382812 0.542382 0 0 1
-0.734375 0.390625 0.547286 0 0 1
-0.734375 0.398438 0.551934 0 0 1
-0.734375 0.40625 0.556195 0 0 1
-0.734375 0.414062 0.560169 0 0 1
-0.734375 0.421875 0.563839 0 0 1
-0.734375 0.429688 0.567479 0 0 1
-0.734375 0.4375 0.570943 0 0 1
-0.734375 0.445312 0.573912 0 0 1
-0.734375 0.453125 0.576945 0 0 1
-0.734375 0.460938 0.579742 0 0 1
-0.734375 0.46875 0.582077 0 0 1
-0.734375 0.476562 0.584412 0 0 1
-0.734375 0.484375 0.586187 0 0 1
-0.734375 0.492188 0.587992 0 0 1
-0.734375 0.5 0.589953 0 0 1
-0.734375 0.507812 0.591127 0 0 1
-0.734375 0.515625 0.592066 0 0 1
-0.734375 0.523438 0.59307 0 0 1
-0.734375 0.53125 0.593872 0 0 1
-0.734375 0.539062 0.594678 0 0 1
-0.734375 0.546875 0.595263 0 0 1
-0.734375 0.554688 0.595787 0 0 1
-0.734375 0.5625 0.596142 0 0 1
-0.734375 0.570312 0.596133 0 0 1
-0.734375 0.578125 0.596312 0 0 1
-0.734375 0.585938 0.596846 0 0 1
-0.734375 0.59375 0.596938 0 0 1
-0.734375 0.601562 0.59731 0 0 1
-0.734375 0.609375 0.597743 0 0 1
-0.734375 0.617188 0.597711 0 0 1
-0.734375 0.625 0.5976 0 0 1
-0.734375 0.632812 0.596804 0 0 1
-0.734375 0.640625 0.595106 0 0 1
-0.734375 0.648438 0.592473 0 0 1
-0.734375 0.65625 0.588184 0 0 1
-0.726562 0.351562 0.502878 0 0 1
-0.726562 0.359375 0.514728 0 0 1
-0.726562 0.367188 0.522702 0 0 1
-0.726562 0.375 0.530134 0 0 1
-0.726562 0.382812 0.536079 0 0 1
-0.726562 0.390625 0.541485 0 0 1
-0.726562 0.398438 0.54624 0 0 1
-0.726562 0.40625 0.550877 0 0 1
-0.726562 0.414062 0.555446 0 0 1
-0.726562 0.421875 0.55957 0 0 1
-0.726562 0.429688 0.563347 0 0 1
-0.726562 0.4375 0.567423 0 0 1
-0.726562 0.445312 0.570814 0 0 1
-0.726562 0.453125 0.574137 0 0 1
-0.726562 0.460938 0.577136 0 0 1
-0.726562 0.46875 0.580043 0 0 1
-0.726562 0.476562 0.582907 0 0 1
-0.726562 0.484375 0.585261 0 0 1
-0.726562 0.492188 0.587244 0 0 1
-0.726562 0.5 0.589323 0 0 1
-0.726562 0.507812 0.590979 0 0 1
-0.726562 0.515625 0.592635 0 0 1
-0.726562 0.523438 0.593986 0 0 1
-0.726562 0.53125 0.594996 0 0 1
-0.726562 0.539062 0.596065 0 0 1
-0.726562 0.546875 0.597232 0 0 1
-0.726562 0.554688 0.598632 0 0 1
-0.726562 0.5625 0.599721 0 0 1
-0.726562 0.570312 0.600422 0 0 1
-0.726562 0.578125 0.601431 0 0 1
-0.726562 0.585938 0.602212 0 0 1
-0.726562 0.59375 0.603038 0 0 1
-0.726562 0.601562 0.604313 0 0 1
-0.726562 0.609375 0.605605 0 0 1
-0.726562 0.617188 0.606759 0 0 1
-0.726562 0.625 0.607813 0 0 1
-0.726562 0.632812 0.608454 0 0 1
-0.726562 0.640625 0.608611 0 0 1
-0.726562 0.648438 0.60781 0 0 1
-0.726562 0.65625 0.606635 0 0 1
-0.726562 0.664062 0.603826 0 0 1
-0.726562 0.671875 0.600173 0 0 1
-0.726562 0.679688 0.59343 0 0 1
-0.71875 0.359375 0.498744 0 0 1
-0.71875 0.367188 0.512515 0 0 1
-0.71875 0.375 0.521423 0 0 1
-0.71875 0.382812 0.528518 0 0 1
-0.71875 0.390625 0.534792 0 0 1
-0.71875 0.398438 0.540077 0 0 1
-0.71875 0.40625 0.545228 0 0 1
-0.71875 0.414062 0.550129 0 0 1
-0.71875 0.421875 0.554528 0 0 1
-0.71875 0.429688 0.558924 0 0 1
-0.71875 0.4375 0.563134 0 0 1
-0.71875 0.445312 0.566936 0 0 1
-0.71875 0.453125 0.570785 0 0 1
-0.71875 0.460938 0.57412 0 0 1
-0.71875 0.46875 0.57726 0 0 1
-0.71875 0.476562 0.580563 0 0 1
-0.71875 0.484375 0.583333 0 0 1
-0.71875 0.492188 0.585743 0 0 1
-0.71875 0.5 0.588108 0 0 1
-0.71875 0.507812 0.590319 0 0 1
-0.71875 0.515625 0.59226 0 0 1
-0.71875 0.523438 0.594044 0 0 1
-0.71875 0.53125 0.59541 0 0 1
-0.71875 0.539062 0.597018 0 0 1
-0.71875 0.546875 0.598599 0 0 1
-0.71875 0.554688 0.600024 0 0 1
-0.71875 0.5625 0.601523 0 0 1
-0.71875 0.570312 0.603134 0 0 1
-0.71875 0.578125 0.604544 0 0 1
-0.71875 0.585938 0.606007 0 0 1
-0.71875 0.59375 0.607332 0 0 1
-0.71875 0.601562 0.608987 0 0 1
-0.71875 0.609375 0.610856 0 0 1
-0.71875 0.617188 0.612695 0 0 1
-0.71875 0.625 0.613888 0 0 1
-0.71875 0.632812 0.61572 0 0 1
-0.71875 0.640625 0.616787 0 0 1
-0.71875 0.648438 0.617142 0 0 1
-0.71875 0.65625 0.617093 0 0 1
-0.71875 0.664062 0.61629 0 0 1
-0.71875 0.671875 0.614635 0 0 1
-0.71875 0.679688 0.611957 0 0 1
-0.71875 0.6875 0.60749 0 0 1
-0.71875 0.695312 0.602075 0 0 1
-0.710938 0.367188 0.49483 0 0 1
-0.710938 0.375 0.510781 0 0 1
-0.710938 0.382812 0.519828 0 0 1
-0.710938 0.390625 0.527658 0 0 1
-0.710938 0.398438 0.533439 0 0 1
-0.710938 0.40625 0.539126 0 0 1
-0.710938 0.414062 0.544424 0 0 1
-0.710938 0.421875 0.549375 0 0 1
-0.710938 0.429688 0.553945 0 0 1
-0.710938 0.4375 0.558042 0 0 1
-0.710938 0.445312 0.562275 0 0 1
-0.710938 0.453125 0.566574 0 0 1
-0.710938 0.460938 0.570368 0 0 1
-0.710938 0.46875 0.573905 0 0 1
-0.710938 0.476562 0.577387 0 0 1
-0.710938 0.484375 0.580622 0 0 1
-0.710938 0.492188 0.58365 0 0 1
-0.710938 0.5 0.586454 0 0 1
-0.710938 0.507812 0.58921 0 0 1
-0.710938 0.515625 0.591422 0 0 1
-0.710938 0.523438 0.593622 0 0 1
-0.710938 0.53125 0.595486 0 0 1
-0.710938 0.539062 0.597093 0 0 1
-0.710938 0.546875 0.598862 0 0 1
-0.710938 0.554688 0.600652 0 0 1
-0.710938 0.5625 0.602329 0 0 1
-0.710938 0.570312 0.604259 0 0 1
-0.710938 0.578125 0.606086 0 0 1
-0.710938 0.585938 0.607907 0 0 1
-0.710938 0.59375 0.609902 0 0 1
-0.710938 0.601562 0.612093 0 0 1
-0.710938 0.609375 0.614487 0 0 1
-0.710938 0.617188 0.61672 0 0 1
-0.710938 0.625 0.618586 0 0 1
-0.710938 0.632812 0.620713 0 0 1
-0.710938 0.640625 0.622179 0 0 1
-0.710938 0.648438 0.623437 0 0 1
-0.710938 0.65625 0.623873 0 0 1
-0.710938 0.664062 0.624169 0 0 1
-0.710938 0.671875 0.623911 0 0 1
-0.710938 0.679688 0.622882 0 0 1
-0.710938 0.6875 0.620839 0 0 1
-0.710938 0.695312 0.617404 0 0 1
-0.710938 0.703125 0.61214 0 0 1
-0.710938 0.710938 0.605748 0 0 1
-0.703125 0.382812 0.505552 0 0 1
-0.703125 0.390625 0.518326 0 0 1
-0.703125 0.398438 0.525842 0 0 1
-0.703125 0.40625 0.532415 0 0 1
-0.703125 0.414062 0.538169 0 0 1
-0.703125 0.421875 0.543531 0 0 1
-0.703125 0.429688 0.548473 0 0 1
-0.703125 0.4375 0.553022 0 0 1
-0.703125 0.445312 0.557524 0 0 1
-0.703125 0.453125 0.561673 0 0 1
-0.703125 0.460938 0.56596 0 0 1
-0.703125 0.46875 0.569947 0 0 1
-0.703125 0.476562 0.573631 0 0 1
-0.703125 0.484375 0.577419 0 0 1
-0.703125 0.492188 0.581055 0 0 1
-0.703125 0.5 0.584468 0 0 1
-0.703125 0.507812 0.58741 0 0 1
-0.703125 0.515625 0.590236 0 0 1
-0.703125 0.523438 0.592673 0 0 1
-0.703125 0.53125 0.594946 0 0 1
-0.703125 0.539062 0.596973 0 0 1
-0.703125 0.546875 0.598821 0 0 1
-0.703125 0.554688 0.600786 0 0 1
-0.703125 0.5625 0.602753 0 0 1
-0.703125 0.570312 0.604511 0 0 1
-0.703125 0.578125 0.606602 0 0 1
-0.703125 0.585938 0.608719 0 0 1
-0.703125 0.59375 0.611351 0 0 1
-0.703125 0.601562 0.613994 0 0 1
-0.703125 0.609375 0.61697 0 0 1
-0.703125 0.617188 0.619584 0 0 1
-0.703125 0.625 0.622258 0 0 1
-0.703125 0.632812 0.624522 0 0 1
-0.703125 0.640625 0.626696 0 0 1
-0.703125 0.648438 0.628018 0 0 1
-0.703125 0.65625 0.628783 0 0 1
-0.703125 0.664062 0.629446 0 0 1
-0.703125 0.671875 0.629538 0 0 1
-0.703125 0.679688 0.628774 0 0 1
-0.703125 0.6875 0.628069 0 0 1
-0.703125 0.695312 0.626455 0 0 1
-0.703125 0.703125 0.623809 0 0 1
-0.703125 0.710938 0.619397 0 0 1
-0.703125 0.71875 0.614227 0 0 1
-0.703125 0.726562 0.607306 0 0 1
-0.695312 0.390625 0.500896 0 0 1
-0.695312 0.398438 0.51428 0 0 1
-0.695312 0.40625 0.524448 0 0 1
-0.695312 0.414062 0.531471 0 0 1
-0.695312 0.421875 0.53752 0 0 1
-0.695312 0.429688 0.542885 0 0 1
-0.695312 0.4375 0.547748 0 0 1
-0.695312 0.445312 0.552438 0 0 1
-0.695312 0.453125 0.556592 0 0 1
-0.695312 0.460938 0.561122 0 0 1
-0.695312 0.46875 0.565357 0 0 1
-0.695312 0.476562 0.569547 0 0 1
-0.695312 0.484375 0.573511 0 0 1
-0.695312 0.492188 0.577475 0 0 1
-0.695312 0.5 0.581403 0 0 1
-0.695312 0.507812 0.584817 0 0 1
-0.695312 0.515625 0.588216 0 0 1
-0.695312 0.523438 0.591129 0 0 1
-0.695312 0.53125 0.593694 0 0 1
-0.695312 0.539062 0.596134 0 0 1
-0.695312 0.546875 0.598528 0 0 1
-0.695312 0.554688 0.600744 0 0 1
-0.695312 0.5625 0.602609 0 0 1
-0.695312 0.570312 0.604441 0 0 1
-0.695312 0.578125 0.606351 0 0 1
-0.695312 0.585938 0.60863 0 0 1
-0.695312 0.59375 0.611431 0 0 1
-0.695312 0.601562 0.614789 0 0 1
-0.695312 0.609375 0.618223 0 0 1
-0.695312 0.617188 0.621774 0 0 1
-0.695312 0.625 0.625029 0 0 1
-0.695312 0.632812 0.627742 0 0 1
-0.695312 0.640625 0.629831 0 0 1
-0.695312 0.648438 0.631589 0 0 1
-0.695312 0.65625 0.633011 0 0 1
-0.695312 0.664062 0.633559 0 0 1
-0.695312 0.671875 0.633525 0 0 1
-0.695312 0.679688 0.633436 0 0 1
-0.695312 0.6875 0.633031 0 0 1
-0.695312 0.695312 0.631907 0 0 1
-0.695312 0.703125 0.630324 0 0 1
-0.695312 0.710938 0.628103 0 0 1
-0.695312 0.71875 0.62476 0 0 1
-0.695312 0.726562 0.619646 0 0 1
-0.695312 0.734375 0.612731 0 0 1
-0.695312 0.742188 0.602471 0 0 1
-0.6875 0.398438 0.494972 0 0 1
-0.6875 0.40625 0.511472 0 0 1
-0.6875 0.414062 0.522906 0 0 1
-0.6875 0.421875 0.530638 0 0 1
-0.6875 0.429688 0.536792 0 0 1
-0.6875 0.4375 0.542171 0 0 1
-0.6875 0.445312 0.547048 0 0 1
-0.6875 0.453125 0.551432 0 0 1
-0.6875 0.460938 0.556056 0 0 1
-0.6875 0.46875 0.560763 0 0 1
-0.6875 0.476562 0.564928 0 0 1
-0.6875 0.484375 0.569313 0 0 1
-0.6875 0.492188 0.573467 0 0 1
-0.6875 0.5 0.577517 0 0 1
-0.6875 0.507812 0.58158 0 0 1
-0.6875 0.515625 0.585338 0 0 1
-0.6875 0.523438 0.588966 0 0 1
-0.6875 0.53125 0.592057 0 0 1
-0.6875 0.539062 0.594888 0 0 1
-0.6875 0.546875 0.5974 0 0 1
-0.6875 0.554688 0.599722 0 0 1
-0.6875 0.5625 0.601833 0 0 1
-0.6875 0.570312 0.6037 0 0 1
-0.6875 0.578125 0.605678 0 0 1
-0.6875 0.585938 0.608074 0 0 1
-0.6875 0.59375 0.610837 0 0 1
-0.6875 0.601562 0.614405 0 0 1
-0.6875 0.609375 0.618754 0 0 1
-0.6875 0.617188 0.623019 0 0 1
-0.6875 0.625 0.627084 0 0 1
-0.6875 0.632812 0.630327 0 0 1
-0.6875 0.640625 0.632854 0 0 1
-0.6875 0.648438 0.634724 0 0 1
-0.6875 0.65625 0.635945 0 0 1
-0.6875 0.664062 0.636977 0 0 1
-0.6875 0.671875 0.637166 0 0 1
-0.6875 0.679688 0.637019 0 0 1
-0.6875 0.6875 0.636311 0 0 1
-0.6875 0.695312 0.635469 0 0 1
-0.6875 0.703125 0.634731 0 0 1
-0.6875 0.710938 0.63342 0 0 1
-0.6875 0.71875 0.631347 0 0 1
-0.6875 0.726562 0.627763 0 0 1
-0.6875 0.734375 0.622758 0 0 1
-0.6875 0.742188 0.615458 0 0 1
-0.6875 0.75 0.604781 0 0 1
-0.679688 0.414062 0.50868 0 0 1
-0.679688 0.421875 0.521865 0 0 1
-0.679688 0.429688 0.529833 0 0 1
-0.679688 0.4375 0.536033 0 0 1
-0.679688 0.445312 0.541438 0 0 1
-0.679688 0.453125 0.546321 0 0 1
-0.679688 0.460938 0.551056 0 0 1
-0.679688 0.46875 0.555775 0 0 1
-0.679688 0.476562 0.56013 0 0 1
-0.679688 0.484375 0.56451 0 0 1
-0.679688 0.492188 0.569108 0 0 1
-0.679688 0.5 0.573148 0 0 1
-0.679688 0.507812 0.577492 0 0 1
-0.679688 0.515625 0.581778 0 0 1
-0.679688 0.523438 0.585808 0 0 1
-0.679688 0.53125 0.589562 0 0 1
-0.679688 0.539062 0.592869 0 0 1
-0.679688 0.546875 0.595676 0 0 1
-0.679688 0.554688 0.598103 0 0 1
-0.679688 0.5625 0.600241 0 0 1
-0.679688 0.570312 0.602101 0 0 1
-0.679688 0.578125 0.604149 0 0 1
-0.679688 0.585938 0.606325 0 0 1
-0.679688 0.59375 0.60923 0 0 1
-0.679688 0.601562 0.613527 0 0 1
-0.679688 0.609375 0.618791 0 0 1
-0.679688 0.617188 0.624124 0 0 1
-0.679688 0.625 0.62908 0 0 1
-0.679688 0.632812 0.632744 0 0 1
-0.679688 0.640625 0.635262 0 0 1
-0.679688 0.648438 0.637023 0 0 1
-0.679688 0.65625 0.638448 0 0 1
-0.679688 0.664062 0.639519 0 0 1
-0.679688 0.671875 0.639655 0 0 1
-0.679688 0.679688 0.639827 0 0 1
-0.679688 0.6875 0.639215 0 0 1
-0.679688 0.695312 0.63867 0 0 1
-0.679688 0.703125 0.638023 0 0 1
-0.679688 0.710938 0.637016 0 0 1
-0.679688 0.71875 0.63566 0 0 1
-0.679688 0.726562 0.633988 0 0 1
-0.679688 0.734375 0.630551 0 0 1
-0.679688 0.742188 0.624757 0 0 1
-0.679688 0.75 0.615686 0 0 1
-0.679688 0.757812 0.600649 0 0 1
-0.671875 0.421875 0.507439 0 0 1
-0.671875 0.429688 0.520246 0 0 1
-0.671875 0.4375 0.52863 0 0 1
-0.671875 0.445312 0.53538 0 0 1
-0.671875 0.453125 0.540902 0 0 1
-0.671875 0.460938 0.545968 0 0 1
-0.671875 0.46875 0.550736 0 0 1
-0.671875 0.476562 0.555344 0 0 1
-0.671875 0.484375 0.559708 0 0 1
-0.671875 0.492188 0.564219 0 0 1
-0.671875 0.5 0.568338 0 0 1
-0.671875 0.507812 0.572952 0 0 1
-0.671875 0.515625 0.57757 0 0 1
-0.671875 0.523438 0.582334 0 0 1
-0.671875 0.53125 0.586448 0 0 1
-0.671875 0.539062 0.590016 0 0 1
-0.671875 0.546875 0.592917 0 0 1
-0.671875 0.554688 0.595448 0 0 1
-0.671875 0.5625 0.597605 0 0 1
-0.671875 0.570312 0.599567 0 0 1
-0.671875 0.578125 0.601592 0 0 1
-0.671875 0.585938 0.603958 0 0 1
-0.671875 0.59375 0.60704 0 0 1
-0.671875 0.601562 0.611911 0 0 1
-0.671875 0.609375 0.618632 0 0 1
-0.671875 0.617188 0.625969 0 0 1
-0.671875 0.625 0.63151 0 0 1
-0.671875 0.632812 0.635402 0 0 1
-0.671875 0.640625 0.63808 0 0 1
-0.671875 0.648438 0.639752 0 0 1
-0.671875 0.65625 0.640716 0 0 1
-0.671875 0.664062 0.641272 0 0 1
-0.671875 0.671875 0.641864 0 0 1
-0.671875 0.679688 0.641812 0 0 1
-0.671875 0.6875 0.641469 0 0 1
-0.671875 0.695312 0.641051 0 0 1
-0.671875 0.703125 0.640643 0 0 1
-0.671875 0.710938 0.639893 0 0 1
-0.671875 0.71875 0.639312 0 0 1
-0.671875 0.726562 0.637877 0 0 1
-0.671875 0.734375 0.636013 0 0 1
-0.671875 0.742188 0.632182 0 0 1
-0.671875 0.75 0.623675 0 0 1
-0.671875 0.757812 0.612055 0 0 1
-0.664062 0.429688 0.503717 0 0 1
-0.664062 0.4375 0.517785 0 0 1
-0.664062 0.445312 0.52724 0 0 1
-0.664062 0.453125 0.53421 0 0 1
-0.664062 0.460938 0.540015 0 0 1
-0.664062 0.46875 0.545207 0 0 1
-0.664062 0.476562 0.550118 0 0 1
-0.664062 0.484375 0.554745 0 0 1
-0.664062 0.492188 0.559241 0 0 1
-0.664062 0.5 0.563629 0 0 1
-0.664062 0.507812 0.568121 0 0 1
-0.664062 0.515625 0.572898 0 0 1
-0.664062 0.523438 0.578042 0 0 1
-0.664062 0.53125 0.582325 0 0 1
-0.664062 0.539062 0.585991 0 0 1
-0.664062 0.546875 0.589163 0 0 1
-0.664062 0.554688 0.591876 0 0 1
-0.664062 0.5625 0.594264 0 0 1
-0.664062 0.570312 0.5967 0 0 1
-0.664062 0.578125 0.598839 0 0 1
-0.664062 0.585938 0.601179 0 0 1
-0.664062 0.59375 0.604101 0 0 1
-0.664062 0.601562 0.609519 0 0 1
-0.664062 0.609375 0.620762 0 0 1
-0.664062 0.617188 0.630193 0 0 1
-0.664062 0.625 0.635758 0 0 1
-0.664062 0.632812 0.639119 0 0 1
-0.664062 0.640625 0.641139 0 0 1
-0.664062 0.648438 0.642362 0 0 1
-0.664062 0.65625 0.643117 0 0 1
-0.664062 0.664062 0.643313 0 0 1
-0.664062 0.671875 0.643549 0 0 1
-0.664062 0.679688 0.643466 0 0 1
-0.664062 0.6875 0.643169 0 0 1
-0.664062 0.695312 0.642789 0 0 1
-0.664062 0.703125 0.642329 0 0 1
-0.664062 0.710938 0.64197 0 0 1
-0.664062 0.71875 0.641484 0 0 1
-0.664062 0.726562 0.640918 0 0 1
-0.664062 0.734375 0.639493 0 0 1
-0.664062 0.742188 0.636756 0 0 1
-0.664062 0.75 0.630768 0 0 1
-0.664062 0.757812 0.618909 0 0 1
-0.664062 0.765625 0.602902 0 0 1
-0.65625 -1.38281 0.57496 0 0 1
-0.65625 0.4375 0.498624 0 0 1
-0.65625 0.445312 0.513242 0 0 1
-0.65625 0.453125 0.523743 0 0 1
-0.65625 0.460938 0.531739 0 0 1
-0.65625 0.46875 0.538522 0 0 1
-0.65625 0.476562 0.544097 0 0 1
-0.65625 0.484375 0.54919 0 0 1
-0.65625 0.492188 0.553884 0 0 1
-0.65625 0.5 0.558463 0 0 1
-0.65625 0.507812 0.563037 0 0 1
-0.65625 0.515625 0.568047 0 0 1
-0.65625 0.523438 0.57293 0 0 1
-0.65625 0.53125 0.577276 0 0 1
-0.65625 0.539062 0.580992 0 0 1
-0.65625 0.546875 0.58438 0 0 1
-0.65625 0.554688 0.587687 0 0 1
-0.65625 0.5625 0.590563 0 0 1
-0.65625 0.570312 0.593684 0 0 1
-0.65625 0.578125 0.596102 0 0 1
-0.65625 0.585938 0.598243 0 0 1
-0.65625 0.59375 0.601358 0 0 1
-0.65625 0.601562 0.608793 0 0 1
-0.65625 0.609375 0.630333 0 0 1
-0.65625 0.617188 0.637749 0 0 1
-0.65625 0.625 0.64188 0 0 1
-0.65625 0.632812 0.643739 0 0 1
-0.65625 0.640625 0.645048 0 0 1
-0.65625 0.648438 0.645502 0 0 1
-0.65625 0.65625 0.645799 0 0 1
-0.65625 0.664062 0.645413 0 0 1
-0.65625 0.671875 0.644778 0 0 1
-0.65625 0.679688 0.644377 0 0 1
-0.65625 0.6875 0.644376 0 0 1
-0.65625 0.695312 0.644052 0 0 1
-0.65625 0.703125 0.643491 0 0 1
-0.65625 0.710938 0.643114 0 0 1
-0.65625 0.71875 0.642774 0 0 1
-0.65625 0.726562 0.642472 0 0 1
-0.65625 0.734375 0.641127 0 0 1
-0.65625 0.742188 0.63901 0 0 1
-0.65625 0.75 0.634564 0 0 1
-0.65625 0.757812 0.624726 0 0 1
-0.65625 0.765625 0.609028 0 0 1
-0.648438 -1.38281 0.576896 0 0 1
-0.648438 -1.375 0.57344 0 0 1
-0.648438 -1.35938 0.546614 0 0 1
-0.648438 -1.35156 0.541684 0 0 1
-0.648438 -1.34375 0.537232 0 0 1
-0.648438 -1.33594 0.533116 0 0 1
-0.648438 -1.32812 0.524984 0 0 1
-0.648438 -0.242188 0.576158 0 0 1
-0.648438 -0.234375 0.581582 0 0 1
-0.648438 -0.226562 0.584352 0 0 1
-0.648438 -0.21875 0.590902 0 0 1
-0.648438 -0.210938 0.595679 0 0 1
-0.648438 -0.203125 0.594767 0 0 1
-0.648438 -0.195312 0.59363 0 0 1
-0.648438 -0.1875 0.590622 0 0 1
-0.648438 -0.179688 0.588767 0 0 1
-0.648438 -0.171875 0.591413 0 0 1
-0.648438 -0.164062 0.585519 0 0 1
-0.648438 0.453125 0.508592 0 0 1
-0.648438 0.460938 0.517772 0 0 1
-0.648438 0.46875 0.527086 0 0 1
-0.648438 0.476562 0.535585 0 0 1
-0.648438 0.484375 0.541903 0 0 1
-0.648438 0.492188 0.54729 0 0 1
-0.648438 0.5 0.552149 0 0 1
-0.648438 0.507812 0.557158 0 0 1
-0.648438 0.515625 0.562358 0 0 1
-0.648438 0.523438 0.567235 0 0 1
-0.648438 0.53125 0.571552 0 0 1
-0.648438 0.539062 0.575569 0 0 1
-0.648438 0.546875 0.57947 0 0 1
-0.648438 0.554688 0.583294 0 0 1
-0.648438 0.5625 0.586844 0 0 1
-0.648438 0.570312 0.59036 0 0 1
-0.648438 0.578125 0.593332 0 0 1
-0.648438 0.585938 0.59623 0 0 1
-0.648438 0.59375 0.600992 0 0 1
-0.648438 0.601562 0.637968 0 0 1
-0.648438 0.609375 0.644892 0 0 1
-0.648438 0.617188 0.648294 0 0 1
-0.648438 0.625 0.649917 0 0 1
-0.648438 0.632812 0.650227 0 0 1
-0.648438 0.640625 0.649462 0 0 1
-0.648438 0.648438 0.649214 0 0 1
-0.648438 0.65625 0.648177 0 0 1
-0.648438 0.664062 0.647333 0 0 1
-0.648438 0.671875 0.646394 0 0 1
-0.648438 0.679688 0.645867 0 0 1
-0.648438 0.6875 0.64522 0 0 1
-0.648438 0.695312 0.644718 0 0 1
-0.648438 0.703125 0.644133 0 0 1
-0.648438 0.710938 0.643971 0 0 1
-0.648438 0.71875 0.643583 0 0 1
-0.648438 0.726562 0.642993 0 0 1
-0.648438 0.734375 0.641903 0 0 1
-0.648438 0.742188 0.639714 0 0 1
-0.648438 0.75 0.63594 0 0 1
-0.648438 0.757812 0.627785 0 0 1
-0.648438 0.765625 0.613146 0 0 1
-0.640625 -1.40625 0.610548 0 0 1
-0.640625 -1.39844 0.606863 0 0 1
-0.640625 -1.38281 0.577715 0 0 1
-0.640625 -1.375 0.574294 0 0 1
-0.640625 -1.36719 0.569226 0 0 1
-0.640625 -1.35938 0.561254 0 0 1
-0.640625 -1.35156 0.554057 0 0 1
-0.640625 -1.34375 0.54614 0 0 1
-0.640625 -1.33594 0.535611 0 0 1
-0.640625 -1.32812 0.526846 0 0 1
-0.640625 -1.32031 0.516245 0 0 1
-0.640625 -1.3125 0.494824 0 0 1
-0.640625 -0.335938 0.563182 0 0 1
-0.640625 -0.328125 0.575569 0 0 1
-0.640625 -0.320312 0.582205 0 0 1
-0.640625 -0.3125 0.588164 0 0 1
-0.640625 -0.304688 0.593398 0 0 1
-0.640625 -0.296875 0.597453 0 0 1
-0.640625 -0.289062 0.600245 0 0 1
-0.640625 -0.28125 0.603651 0 0 1
-0.640625 -0.273438 0.608051 0 0 1
-0.640625 -0.265625 0.610175 0 0 1
-0.640625 -0.257812 0.61203 0 0 1
-0.640625 -0.25 0.614979 0 0 1
-0.640625 -0.242188 0.616857 0 0 1
-0.640625 -0.234375 0.618179 0 0 1
-0.640625 -0.226562 0.619775 0 0 1
-0.640625 -0.21875 0.621592 0 0 1
-0.640625 -0.210938 0.621958 0 0 1
-0.640625 -0.203125 0.621768 0 0 1
-0.640625 -0.195312 0.622094 0 0 1
-0.640625 -0.1875 0.622281 0 0 1
-0.640625 -0.179688 0.622368 0 0 1
-0.640625 -0.171875 0.622499 0 0 1
-0.640625 -0.164062 0.622973 0 0 1
-0.640625 -0.15625 0.622432 0 0 1
-0.640625 -0.148438 0.623429 0 0 1
-0.640625 -0.140625 0.625056 0 0 1
-0.640625 -0.132812 0.62619 0 0 1
-0.640625 -0.125 0.626305 0 0 1
-0.640625 -0.117188 0.626856 0 0 1
-0.640625 -0.109375 0.627 0 0 1
-0.640625 -0.101562 0.626882 0 0 1
-0.640625 -0.09375 0.625466 0 0 1
-0.640625 -0.0859375 0.622349 0 0 1
-0.640625 -0.078125 0.616994 0 0 1
-0.640625 -0.0703125 0.61288 0 0 1
-0.640625 -0.0625 0.614767 0 0 1
-0.640625 -0.0546875 0.621034 0 0 1
-0.640625 -0.046875 0.628203 0 0 1
-0.640625 -0.0390625 0.633146 0 0 1
-0.640625 -0.03125 0.635791 0 0 1
-0.640625 -0.0234375 0.637082 0 0 1
-0.640625 -0.015625 0.63851 0 0 1
-0.640625 -0.0078125 0.638672 0 0 1
-0.640625 0 0.637757 0 0 1
-0.640625 0.0078125 0.63646 0 0 1
-0.640625 0.015625 0.634695 0 0 1
-0.640625 0.0234375 0.632885 0 0 1
-0.640625 0.03125 0.631859 0 0 1
-0.640625 0.0390625 0.618186 0 0 1
-0.640625 0.460938 0.500195 0 0 1
-0.640625 0.46875 0.511073 0 0 1
-0.640625 0.476562 0.520526 0 0 1
-0.640625 0.484375 0.529765 0 0 1
-0.640625 0.492188 0.537308 0 0 1
-0.640625 0.5 0.543858 0 0 1
-0.640625 0.507812 0.549392 0 0 1
-0.640625 0.515625 0.554945 0 0 1
-0.640625 0.523438 0.559973 0 0 1
-0.640625 0.53125 0.564649 0 0 1
-0.640625 0.539062 0.569173 0 0 1
-0.640625 0.546875 0.573761 0 0 1
-0.640625 0.554688 0.578316 0 0 1
-0.640625 0.5625 0.582925 0 0 1
-0.640625 0.570312 0.587278 0 0 1
-0.640625 0.578125 0.591243 0 0 1
-0.640625 0.585938 0.632582 0 0 1
-0.640625 0.59375 0.64454 0 0 1
-0.640625 0.601562 0.651498 0 0 1
-0.640625 0.609375 0.654981 0 0 1
-0.640625 0.617188 0.656585 0 0 1
-0.640625 0.625 0.656647 0 0 1
-0.640625 0.632812 0.655846 0 0 1
-0.640625 0.640625 0.654485 0 0 1
-0.640625 0.648438 0.652894 0 0 1
-0.640625 0.65625 0.651463 0 0 1
-0.640625 0.664062 0.649655 0 0 1
-0.640625 0.671875 0.647969 0 0 1
-0.640625 0.679688 0.646791 0 0 1
-0.640625 0.6875 0.645755 0 0 1
-0.640625 0.695312 0.64501 0 0 1
-0.640625 0.703125 0.644413 0 0 1
-0.640625 0.710938 0.644076 0 0 1
-0.640625 0.71875 0.643931 0 0 1
-0.640625 0.726562 0.643021 0 0 1
-0.640625 0.734375 0.641479 0 0 1
-0.640625 0.742188 0.639202 0 0 1
-0.640625 0.75 0.635682 0 0 1
-0.640625 0.757812 0.628524 0 0 1
-0.640625 0.765625 0.615595 0 0 1
-0.632812 -1.39844 0.609012 0 0 1
-0.632812 -1.39062 0.601382 0 0 1
-0.632812 -1.38281 0.591371 0 0 1
-0.632812 -1.375 0.575003 0 0 1
-0.632812 -1.36719 0.570918 0 0 1
-0.632812 -1.35938 0.564185 0 0 1
-0.632812 -1.35156 0.556117 0 0 1
-0.632812 -1.34375 0.548745 0 0 1
-0.632812 -1.33594 0.540326 0 0 1
-0.632812 -1.32812 0.52912 0 0 1
-0.632812 -1.32031 0.519359 0 0 1
-0.632812 -1.3125 0.509252 0 0 1
-0.632812 -1.30469 0.493619 0 0 1
-0.632812 -0.382812 0.552761 0 0 1
-0.632812 -0.375 0.564252 0 0 1
-0.632812 -0.367188 0.571999 0 0 1
-0.632812 -0.359375 0.578565 0 0 1
-0.632812 -0.351562 0.585743 0 0 1
-0.632812 -0.34375 0.592243 0 0 1
-0.632812 -0.335938 0.596146 0 0 1
-0.632812 -0.328125 0.60072 0 0 1
-0.632812 -0.320312 0.605468 0 0 1
-0.632812 -0.3125 0.608728 0 0 1
-0.632812 -0.304688 0.611777 0 0 1
-0.632812 -0.296875 0.615359 0 0 1
-0.632812 -0.289062 0.618242 0 0 1
-0.632812 -0.28125 0.620966 0 0 1
-0.632812 -0.273438 0.623054 0 0 1
-0.632812 -0.265625 0.625273 0 0 1
-0.632812 -0.257812 0.627547 0 0 1
-0.632812 -0.25 0.630092 0 0 1
-0.632812 -0.242188 0.63175 0 0 1
-0.632812 -0.234375 0.632835 0 0 1
-0.632812 -0.226562 0.634251 0 0 1
-0.632812 -0.21875 0.635453 0 0 1
-0.632812 -0.210938 0.635983 0 0 1
-0.632812 -0.203125 0.636622 0 0 1
-0.632812 -0.195312 0.637069 0 0 1
-0.632812 -0.1875 0.637093 0 0 1
-0.632812 -0.179688 0.637609 0 0 1
-0.632812 -0.171875 0.637685 0 0 1
-0.632812 -0.164062 0.63786 0 0 1
-0.632812 -0.15625 0.638302 0 0 1
-0.632812 -0.148438 0.639102 0 0 1
-0.632812 -0.140625 0.640124 0 0 1
-0.632812 -0.132812 0.640922 0 0 1
-0.632812 -0.125 0.641276 0 0 1
-0.632812 -0.117188 0.641446 0 0 1
-0.632812 -0.109375 0.641536 0 0 1
-0.632812 -0.101562 0.641548 0 0 1
-0.632812 -0.09375 0.640578 0 0 1
-0.632812 -0.0859375 0.638739 0 0 1
-0.632812 -0.078125 0.636368 0 0 1
-0.632812 -0.0703125 0.637471 0 0 1
-0.632812 -0.0625 0.640256 0 0 1
-0.632812 -0.0546875 0.643264 0 0 1
-0.632812 -0.046875 0.646262 0 0 1
-0.632812 -0.0390625 0.648989 0 0 1
-0.632812 -0.03125 0.650581 0 0 1
-0.632812 -0.0234375 0.650801 0 0 1
-0.632812 -0.015625 0.650664 0 0 1
-0.632812 -0.0078125 0.65078 0 0 1
-0.632812 0 0.651489 0 0 1
-0.632812 0.0078125 0.653385 0 0 1
-0.632812 0.015625 0.654842 0 0 1
-0.632812 0.0234375 0.657008 0 0 1
-0.632812 0.03125 0.65522 0 0 1
-0.632812 0.0390625 0.648452 0 0 1
-0.632812 0.046875 0.646304 0 0 1
-0.632812 0.0546875 0.645698 0 0 1
-0.632812 0.0625 0.642295 0 0 1
-0.632812 0.0703125 0.639078 0 0 1
-0.632812 0.078125 0.633261 0 0 1
-0.632812 0.0859375 0.630925 0 0 1
-0.632812 0.09375 0.625885 0 0 1
-0.632812 0.101562 0.619474 0 0 1
-0.632812 0.109375 0.612123 0 0 1
-0.632812 0.117188 0.600613 0 0 1
-0.632812 0.476562 0.501611 0 0 1
-0.632812 0.484375 0.511553 0 0 1
-0.632812 0.492188 0.521205 0 0 1
-0.632812 0.5 0.530858 0 0 1
-0.632812 0.507812 0.539156 0 0 1
-0.632812 0.515625 0.544541 0 0 1
-0.632812 0.523438 0.550833 0 0 1
-0.632812 0.53125 0.55612 0 0 1
-0.632812 0.539062 0.560964 0 0 1
-0.632812 0.546875 0.566489 0 0 1
-0.632812 0.554688 0.572457 0 0 1
-0.632812 0.5625 0.578466 0 0 1
-0.632812 0.570312 0.616337 0 0 1
-0.632812 0.578125 0.640306 0 0 1
-0.632812 0.585938 0.651819 0 0 1
-0.632812 0.59375 0.658814 0 0 1
-0.632812 0.601562 0.662639 0 0 1
-0.632812 0.609375 0.664562 0 0 1
-0.632812 0.617188 0.664789 0 0 1
-0.632812 0.625 0.663152 0 0 1
-0.632812 0.632812 0.661126 0 0 1
-0.632812 0.640625 0.659227 0 0 1
-0.632812 0.648438 0.656614 0 0 1
-0.632812 0.65625 0.654254 0 0 1
-0.632812 0.664062 0.652088 0 0 1
-0.632812 0.671875 0.649668 0 0 1
-0.632812 0.679688 0.647876 0 0 1
-0.632812 0.6875 0.646262 0 0 1
-0.632812 0.695312 0.645365 0 0 1
-0.632812 0.703125 0.644528 0 0 1
-0.632812 0.710938 0.643939 0 0 1
-0.632812 0.71875 0.643351 0 0 1
-0.632812 0.726562 0.642326 0 0 1
-0.632812 0.734375 0.640686 0 0 1
-0.632812 0.742188 0.63797 0 0 1
-0.632812 0.75 0.63435 0 0 1
-0.632812 0.757812 0.627594 0 0 1
-0.632812 0.765625 0.615385 0 0 1
-0.625 -1.40625 0.613799 0 0 1
-0.625 -1.39844 0.609874 0 0 1
-0.625 -1.39062 0.602904 0 0 1
-0.625 -1.38281 0.594343 0 0 1
-0.625 -1.375 0.58473 0 0 1
-0.625 -1.36719 0.576769 0 0 1
-0.625 -1.35938 0.571891 0 0 1
-0.625 -1.35156 0.557241 0 0 1
-0.625 -1.34375 0.550164 0 0 1
-0.625 -1.33594 0.542307 0 0 1
-0.625 -1.32812 0.532604 0 0 1
-0.625 -1.32031 0.521741 0 0 1
-0.625 -1.3125 0.511475 0 0 1
-0.625 -1.30469 0.500324 0 0 1
-0.625 -1.29688 0.48571 0 0 1
-0.625 -0.421875 0.546122 0 0 1
-0.625 -0.414062 0.55625 0 0 1
-0.625 -0.40625 0.564252 0 0 1
-0.625 -0.398438 0.571249 0 0 1
-0.625 -0.390625 0.57672 0 0 1
-0.625 -0.382812 0.582271 0 0 1
-0.625 -0.375 0.588079 0 0 1
-0.625 -0.367188 0.59311 0 0 1
-0.625 -0.359375 0.599186 0 0 1
-0.625 -0.351562 0.60367 0 0 1
-0.625 -0.34375 0.607211 0 0 1
-0.625 -0.335938 0.611692 0 0 1
-0.625 -0.328125 0.615108 0 0 1
-0.625 -0.320312 0.618581 0 0 1
-0.625 -0.3125 0.621537 0 0 1
-0.625 -0.304688 0.624098 0 0 1
-0.625 -0.296875 0.627075 0 0 1
-0.625 -0.289062 0.629675 0 0 1
-0.625 -0.28125 0.632214 0 0 1
-0.625 -0.273438 0.634122 0 0 1
-0.625 -0.265625 0.636045 0 0 1
-0.625 -0.257812 0.638107 0 0 1
-0.625 -0.25 0.640021 0 0 1
-0.625 -0.242188 0.641834 0 0 1
-0.625 -0.234375 0.643011 0 0 1
-0.625 -0.226562 0.6446 0 0 1
-0.625 -0.21875 0.645565 0 0 1
-0.625 -0.210938 0.645373 0 0 1
-0.625 -0.203125 0.64612 0 0 1
-0.625 -0.195312 0.646811 0 0 1
-0.625 -0.1875 0.647211 0 0 1
-0.625 -0.179688 0.647528 0 0 1
-0.625 -0.171875 0.647807 0 0 1
-0.625 -0.164062 0.6482 0 0 1
-0.625 -0.15625 0.648819 0 0 1
-0.625 -0.148438 0.649625 0 0 1
-0.625 -0.140625 0.650377 0 0 1
-0.625 -0.132812 0.651282 0 0 1
-0.625 -0.125 0.651682 0 0 1
