1.21875 -0.296875 0.0408077 0 0 1
1.21875 -0.289062 0.0430315 0 0 1
1.21875 -0.28125 0.0450029 0 0 1
1.21875 -0.273438 0.0451128 0 0 1
1.21875 -0.265625 0.0464132 0 0 1
1.21875 -0.257812 0.0488191 0 0 1
1.21875 -0.25 0.0512249 0 0 1
1.21875 -0.242188 0.0536308 0 0 1
1.21875 -0.234375 0.055825 0 0 1
1.21875 -0.226562 0.0554857 0 0 1
1.21875 -0.21875 0.0590837 0 0 1
1.21875 -0.210938 0.0601916 0 0 1
1.21875 -0.203125 0.0630934 0 0 1
1.21875 -0.195312 0.0661852 0 0 1
1.21875 -0.1875 0.0691066 0 0 1
1.21875 -0.179688 0.0699139 0 0 1
1.21875 -0.171875 0.0720868 0 0 1
1.21875 -0.164062 0.0736172 0 0 1
1.21875 -0.15625 0.0760868 0 0 1
1.21875 -0.148438 0.0805352 0 0 1
1.21875 -0.140625 0.0819573 0 0 1
1.21875 -0.132812 0.0853701 0 0 1
1.21875 -0.125 0.0887825 0 0 1
1.21875 -0.117188 0.0923359 0 0 1
1.21875 -0.109375 0.0963523 0 0 1
1.21875 -0.101562 0.102064 0 0 1
1.21875 -0.09375 0.110319 0 0 1
1.21875 -0.0859375 0.113278 0 0 1
1.21875 -0.078125 0.118043 0 0 1
1.21875 -0.0703125 0.123754 0 0 1
1.21875 -0.0625 0.130512 0 0 1
1.21875 -0.0546875 0.153275 0 0 1
1.21875 -0.046875 0.154709 0 0 1
1.21875 -0.0390625 0.183402 0 0 1
1.21875 -0.03125 0.252393 0 0 1
1.21875 -0.0234375 0.254822 0 0 1
1.21875 -0.015625 0.255424 0 0 1
1.22656 -2 0.0123675 0 0 1
1.22656 -1.99219 0.0133376 0 0 1
1.22656 -1.98438 0.0143077 0 0 1
1.22656 -1.97656 0.0152781 0 0 1
1.22656 -1.96875 0.00915837 0 0 1
1.22656 -1.96094 0.010216 0 0 1
1.22656 -1.95312 0.0112739 0 0 1
1.22656 -1.94531 0.0123315 0 0 1
1.22656 -1.9375 0.0133893 0 0 1
1.22656 -1.92969 0.0144472 0 0 1
1.22656 -1.92188 0.0155048 0 0 1
1.22656 -1.91406 0.0165627 0 0 1
1.22656 -1.90625 0.0176203 0 0 1
1.22656 -1.89844 0.0186782 0 0 1
1.22656 -1.89062 0.0197361 0 0 1
1.22656 -1.88281 0.0207937 0 0 1
1.22656 -1.875 0.0218515 0 0 1
1.22656 -1.86719 0.0229094 0 0 1
1.22656 -1.85938 0.023967 0 0 1
1.22656 -1.85156 0.0250249 0 0 1
1.22656 -1.84375 0.0260825 0 0 1
1.22656 -1.83594 0.0271404 0 0 1
1.22656 -1.82812 0.0278654 0 0 1
1.22656 -1.82031 0.0286222 0 0 1
1.22656 -1.8125 0.0293789 0 0 1
1.22656 -1.80469 0.0301356 0 0 1
1.22656 -1.79688 0.0308924 0 0 1
1.22656 -1.78906 0.0216935 0 0 1
1.22656 -1.78125 0.0205994 0 0 1
1.22656 -1.77344 0.0211201 0 0 1
1.22656 -1.76562 0.0216405 0 0 1
1.22656 -1.75781 0.0221612 0 0 1
1.22656 -1.75 0.0226817 0 0 1
1.22656 -1.74219 0.0232022 0 0 1
1.22656 -1.73438 0.0237229 0 0 1
1.22656 -1.72656 0.0242434 0 0 1
1.22656 -1.71875 0.0247641 0 0 1
1.22656 -1.71094 0.0252845 0 0 1
1.22656 -1.70312 0.0258052 0 0 1
1.22656 -1.69531 0.0263257 0 0 1
1.22656 -1.6875 0.0268464 0 0 1
1.22656 -1.67969 0.0273669 0 0 1
1.22656 -1.67188 0.0278876 0 0 1
1.22656 -1.66406 0.0284081 0 0 1
1.22656 -1.65625 0.0289288 0 0 1
1.22656 -1.64844 0.0294492 0 0 1
1.22656 -1.64062 0.0299697 0 0 1
1.22656 -1.63281 0.0283062 0 0 1
1.22656 -1.625 0.0280704 0 0 1
1.22656 -1.61719 0.0278347 0 0 1
1.22656 -1.60938 0.0275989 0 0 1
1.22656 -1.60156 0.0276442 0 0 1
1.22656 -1.59375 0.0299072 0 0 1
1.22656 -1.58594 0.0321705 0 0 1
1.22656 -1.57812 0.0341344 0 0 1
1.22656 -1.57031 0.0346551 0 0 1
1.22656 -1.5625 0.0351756 0 0 1
1.22656 -1.55469 0.035696 0 0 1
1.22656 -1.54688 0.0362167 0 0 1
1.22656 -1.53906 0.0367372 0 0 1
1.22656 -1.53125 0.0172694 0 0 1
1.22656 -1.52344 0.018605 0 0 1
1.22656 -1.51562 0.0199406 0 0 1
1.22656 -1.50781 0.0212765 0 0 1
1.22656 -1.5 0.0226121 0 0 1
1.22656 -1.49219 0.0239477 0 0 1
1.22656 -1.48438 0.0252833 0 0 1
1.22656 -1.47656 0.0266192 0 0 1
1.22656 -1.46875 0.0279548 0 0 1
1.22656 -1.46094 0.0242236 0 0 1
1.22656 -1.45312 0.0268297 0 0 1
1.22656 -1.44531 0.0294361 0 0 1
1.22656 -1.4375 0.0320423 0 0 1
1.22656 -1.42969 0.0346332 0 0 1
1.22656 -1.42188 0.035969 0 0 1
1.22656 -1.41406 0.0373046 0 0 1
1.22656 -1.40625 0.0386403 0 0 1
1.22656 -1.39844 0.0399759 0 0 1
1.22656 -1.39062 0.0413117 0 0 1
1.22656 -1.38281 0.0426474 0 0 1
1.22656 -1.375 0.0181899 0 0 1
1.22656 -1.36719 0.0188799 0 0 1
1.22656 -1.35938 0.0161552 0 0 1
1.22656 -1.35156 0.0167353 0 0 1
1.22656 -1.34375 0.0173156 0 0 1
1.22656 -1.33594 0.0160117 0 0 1
1.22656 -1.32812 0.0161338 0 0 1
1.22656 -1.32031 0.0165789 0 0 1
1.22656 -1.3125 0.0170238 0 0 1
1.22656 -1.30469 0.0174689 0 0 1
1.22656 -1.29688 0.0179138 0 0 1
1.22656 -1.28906 0.0183587 0 0 1
1.22656 -1.28125 0.0188038 0 0 1
1.22656 -1.27344 0.0192487 0 0 1
1.22656 -1.26562 0.0196936 0 0 1
1.22656 -1.25781 0.0201387 0 0 1
1.22656 -1.25 0.0205836 0 0 1
1.22656 -1.24219 0.0210288 0 0 1
1.22656 -1.23438 0.0201101 0 0 1
1.22656 -1.22656 0.0179026 0 0 1
1.22656 -1.21875 0.0157557 0 0 1
1.22656 -1.21094 0.0132298 0 0 1
1.22656 -1.20312 0.014379 0 0 1
1.22656 -1.19531 0.0155282 0 0 1
1.22656 -1.1875 0.0166774 0 0 1
1.22656 -1.17969 0.0178266 0 0 1
1.22656 -1.17188 0.0189757 0 0 1
1.22656 -1.16406 0.0201247 0 0 1
1.22656 -1.15625 0.0212739 0 0 1
1.22656 -1.14844 0.022423 0 0 1
1.22656 -1.14062 0.0235722 0 0 1
1.22656 -1.13281 0.023695 0 0 1
1.22656 -1.125 0.0238712 0 0 1
1.22656 -1.11719 0.00920963 0 0 1
1.22656 -1.10938 0.0175178 0 0 1
1.22656 -1.10156 0.0159171 0 0 1
1.22656 -1.09375 0.0171502 0 0 1
1.22656 -1.08594 0.018383 0 0 1
1.22656 -1.07812 0.0143785 0 0 1
1.22656 -1.07031 0.0153704 0 0 1
1.22656 -1.0625 0.0163622 0 0 1
1.22656 -1.05469 0.017354 0 0 1
1.22656 -1.04688 0.014076 0 0 1
1.22656 -1.03906 0.0147092 0 0 1
1.22656 -1.03125 0.0153427 0 0 1
1.22656 -1.02344 0.0159762 0 0 1
1.22656 -1.01562 0.0166097 0 0 1
1.22656 -1.00781 0.0188766 0 0 1
1.22656 -1 0.0221806 0 0 1
1.22656 -0.992188 0.0238366 0 0 1
1.22656 -0.984375 0.0249445 0 0 1
1.22656 -0.976562 0.0260522 0 0 1
1.22656 -0.96875 0.025861 0 0 1
1.22656 -0.960938 0.0261893 0 0 1
1.22656 -0.953125 0.0261631 0 0 1
1.22656 -0.945312 0.0261369 0 0 1
1.22656 -0.9375 0.0261104 0 0 1
1.22656 -0.929688 0.0260842 0 0 1
1.22656 -0.921875 0.026058 0 0 1
1.22656 -0.914062 0.0260317 0 0 1
1.22656 -0.90625 0.0260055 0 0 1
1.22656 -0.898438 0.025979 0 0 1
1.22656 -0.890625 0.0259528 0 0 1
1.22656 -0.882812 0.0259266 0 0 1
1.22656 -0.875 0.0259004 0 0 1
1.22656 -0.867188 0.0274863 0 0 1
1.22656 -0.859375 0.029855 0 0 1
1.22656 -0.851562 0.030031 0 0 1
1.22656 -0.84375 0.0302069 0 0 1
1.22656 -0.835938 0.0303831 0 0 1
1.22656 -0.828125 0.0305591 0 0 1
1.22656 -0.820312 0.0161157 0 0 1
1.22656 -0.8125 0.0167398 0 0 1
1.22656 -0.804688 0.017364 0 0 1
1.22656 -0.796875 0.0179882 0 0 1
1.22656 -0.789062 0.0185859 0 0 1
1.22656 -0.78125 0.0186355 0 0 1
1.22656 -0.773438 0.0178983 0 0 1
1.22656 -0.765625 0.0175371 0 0 1
1.22656 -0.757812 0.0167143 0 0 1
1.22656 -0.75 0.0168145 0 0 1
1.22656 -0.742188 0.0188236 0 0 1
1.22656 -0.734375 0.0198781 0 0 1
1.22656 -0.726562 0.0209327 0 0 1
1.22656 -0.71875 0.0219874 0 0 1
1.22656 -0.710938 0.023042 0 0 1
1.22656 -0.703125 0.0240965 0 0 1
1.22656 -0.695312 0.0251513 0 0 1
1.22656 -0.6875 0.0262058 0 0 1
1.22656 -0.679688 0.0272603 0 0 1
1.22656 -0.671875 0.0279741 0 0 1
1.22656 -0.664062 0.0285983 0 0 1
1.22656 -0.65625 0.0292222 0 0 1
1.22656 -0.648438 0.0298464 0 0 1
1.22656 -0.640625 0.0304706 0 0 1
1.22656 -0.632812 0.0310948 0 0 1
1.22656 -0.625 0.0300357 0 0 1
1.22656 -0.617188 0.0323429 0 0 1
1.22656 -0.609375 0.0329671 0 0 1
1.22656 -0.601562 0.0335913 0 0 1
1.22656 -0.59375 0.0342152 0 0 1
1.22656 -0.585938 0.0348394 0 0 1
1.22656 -0.578125 0.0354636 0 0 1
1.22656 -0.570312 0.0360878 0 0 1
1.22656 -0.5625 0.0365429 0 0 1
1.22656 -0.554688 0.0367188 0 0 1
1.22656 -0.546875 0.036895 0 0 1
1.22656 -0.539062 0.037071 0 0 1
1.22656 -0.53125 0.0372469 0 0 1
1.22656 -0.523438 0.0374229 0 0 1
1.22656 -0.515625 0.0375988 0 0 1
1.22656 -0.507812 0.0377748 0 0 1
1.22656 -0.5 0.037951 0 0 1
1.22656 -0.492188 0.0381269 0 0 1
1.22656 -0.484375 0.0383029 0 0 1
1.22656 -0.476562 0.0384789 0 0 1
1.22656 -0.46875 0.0386548 0 0 1
1.22656 -0.460938 0.0387564 0 0 1
1.22656 -0.453125 0.0384905 0 0 1
1.22656 -0.445312 0.0382245 0 0 1
1.22656 -0.4375 0.0379586 0 0 1
1.22656 -0.429688 0.0376925 0 0 1
1.22656 -0.421875 0.0374267 0 0 1
1.22656 -0.414062 0.0371606 0 0 1
1.22656 -0.40625 0.0368948 0 0 1
1.22656 -0.398438 0.0366287 0 0 1
1.22656 -0.390625 0.0363629 0 0 1
1.22656 -0.382812 0.0360968 0 0 1
1.22656 -0.375 0.035831 0 0 1
1.22656 -0.367188 0.0355649 0 0 1
1.22656 -0.359375 0.0389602 0 0 1
1.22656 -0.351562 0.0351253 0 0 1
1.22656 -0.34375 0.0355551 0 0 1
1.22656 -0.335938 0.0338526 0 0 1
1.22656 -0.328125 0.0400918 0 0 1
1.22656 -0.320312 0.0363572 0 0 1
1.22656 -0.3125 0.0429461 0 0 1
1.22656 -0.304688 0.0431967 0 0 1
1.22656 -0.296875 0.044677 0 0 1
1.22656 -0.289062 0.0465901 0 0 1
1.22656 -0.28125 0.046566 0 0 1
1.22656 -0.273438 0.0478926 0 0 1
1.22656 -0.265625 0.0502982 0 0 1
1.22656 -0.257812 0.052248 0 0 1
1.22656 -0.25 0.05511 0 0 1
1.22656 -0.242188 0.0575159 0 0 1
1.22656 -0.234375 0.0592182 0 0 1
1.22656 -0.226562 0.0603261 0 0 1
1.22656 -0.21875 0.0621583 0 0 1
1.22656 -0.210938 0.0651522 0 0 1
1.22656 -0.203125 0.068244 0 0 1
1.22656 -0.195312 0.0692158 0 0 1
1.22656 -0.1875 0.0714836 0 0 1
1.22656 -0.179688 0.0731053 0 0 1
1.22656 -0.171875 0.0755749 0 0 1
1.22656 -0.164062 0.0801485 0 0 1
1.22656 -0.15625 0.0812962 0 0 1
1.22656 -0.148438 0.0847087 0 0 1
1.22656 -0.140625 0.0881214 0 0 1
1.22656 -0.132812 0.0917351 0 0 1
1.22656 -0.125 0.0958381 0 0 1
1.22656 -0.117188 0.100918 0 0 1
1.22656 -0.109375 0.109586 0 0 1
1.22656 -0.101562 0.112544 0 0 1
1.22656 -0.09375 0.117177 0 0 1
1.22656 -0.0859375 0.123101 0 0 1
1.22656 -0.078125 0.129299 0 0 1
1.22656 -0.0703125 0.151843 0 0 1
1.22656 -0.0625 0.153276 0 0 1
1.22656 -0.0546875 0.181849 0 0 1
1.22656 -0.046875 0.251074 0 0 1
1.22656 -0.0390625 0.251676 0 0 1
1.22656 -0.03125 0.252279 0 0 1
1.23438 -2 0.0127609 0 0 1
1.23438 -1.99219 0.013731 0 0 1
1.23438 -1.98438 0.0147011 0 0 1
1.23438 -1.97656 0.0156713 0 0 1
1.23438 -1.96875 0.0166414 0 0 1
1.23438 -1.96094 0.0176115 0 0 1
1.23438 -1.95312 0.0185816 0 0 1
1.23438 -1.94531 0.0195518 0 0 1
1.23438 -1.9375 0.0205221 0 0 1
1.23438 -1.92969 0.0151834 0 0 1
1.23438 -1.92188 0.0162413 0 0 1
1.23438 -1.91406 0.0172989 0 0 1
1.23438 -1.90625 0.0183568 0 0 1
1.23438 -1.89844 0.0194147 0 0 1
1.23438 -1.89062 0.0204723 0 0 1
1.23438 -1.88281 0.0215302 0 0 1
1.23438 -1.875 0.022588 0 0 1
1.23438 -1.86719 0.0236456 0 0 1
1.23438 -1.85938 0.0247035 0 0 1
1.23438 -1.85156 0.0257611 0 0 1
1.23438 -1.84375 0.026819 0 0 1
1.23438 -1.83594 0.0278769 0 0 1
1.23438 -1.82812 0.0289345 0 0 1
1.23438 -1.82031 0.0299923 0 0 1
1.23438 -1.8125 0.03105 0 0 1
1.23438 -1.80469 0.0321078 0 0 1
1.23438 -1.79688 0.0331657 0 0 1
1.23438 -1.78906 0.0342233 0 0 1
1.23438 -1.78125 0.0347471 0 0 1
1.23438 -1.77344 0.0241089 0 0 1
1.23438 -1.76562 0.0229793 0 0 1
1.23438 -1.75781 0.0235 0 0 1
1.23438 -1.75 0.0240204 0 0 1
1.23438 -1.74219 0.0245411 0 0 1
1.23438 -1.73438 0.0250616 0 0 1
1.23438 -1.72656 0.0255821 0 0 1
1.23438 -1.71875 0.0261028 0 0 1
1.23438 -1.71094 0.0266232 0 0 1
1.23438 -1.70312 0.027144 0 0 1
1.23438 -1.69531 0.0276644 0 0 1
1.23438 -1.6875 0.0281851 0 0 1
1.23438 -1.67969 0.0287056 0 0 1
1.23438 -1.67188 0.0292263 0 0 1
1.23438 -1.66406 0.0297468 0 0 1
1.23438 -1.65625 0.0302675 0 0 1
1.23438 -1.64844 0.0307879 0 0 1
1.23438 -1.64062 0.0313087 0 0 1
1.23438 -1.63281 0.0318291 0 0 1
1.23438 -1.625 0.0320883 0 0 1
1.23438 -1.61719 0.0310388 0 0 1
1.23438 -1.60938 0.030803 0 0 1
1.23438 -1.60156 0.0305672 0 0 1
1.23438 -1.59375 0.0303314 0 0 1
1.23438 -1.58594 0.0322423 0 0 1
1.23438 -1.57812 0.0345054 0 0 1
1.23438 -1.57031 0.0359938 0 0 1
1.23438 -1.5625 0.0365143 0 0 1
1.23438 -1.55469 0.037035 0 0 1
1.23438 -1.54688 0.0375555 0 0 1
1.23438 -1.53906 0.0380759 0 0 1
1.23438 -1.53125 0.0385966 0 0 1
1.23438 -1.52344 0.0391171 0 0 1
1.23438 -1.51562 0.0210531 0 0 1
1.23438 -1.50781 0.0223889 0 0 1
1.23438 -1.5 0.0237246 0 0 1
1.23438 -1.49219 0.0250602 0 0 1
1.23438 -1.48438 0.0263958 0 0 1
1.23438 -1.47656 0.0277317 0 0 1
1.23438 -1.46875 0.0290673 0 0 1
1.23438 -1.46094 0.0304029 0 0 1
1.23438 -1.45312 0.0317385 0 0 1
1.23438 -1.44531 0.0280151 0 0 1
1.23438 -1.4375 0.0306215 0 0 1
1.23438 -1.42969 0.0332277 0 0 1
1.23438 -1.42188 0.0358341 0 0 1
1.23438 -1.41406 0.0384171 0 0 1
1.23438 -1.40625 0.0397527 0 0 1
1.23438 -1.39844 0.0410883 0 0 1
1.23438 -1.39062 0.0424242 0 0 1
1.23438 -1.38281 0.0437598 0 0 1
1.23438 -1.375 0.0450954 0 0 1
1.23438 -1.36719 0.0210547 0 0 1
1.23438 -1.35938 0.0217447 0 0 1
1.23438 -1.35156 0.0224347 0 0 1
1.23438 -1.34375 0.0196459 0 0 1
1.23438 -1.33594 0.0202262 0 0 1
1.23438 -1.32812 0.0187566 0 0 1
1.23438 -1.32031 0.019695 0 0 1
1.23438 -1.3125 0.019556 0 0 1
1.23438 -1.30469 0.0200009 0 0 1
1.23438 -1.29688 0.0204461 0 0 1
1.23438 -1.28906 0.020891 0 0 1
1.23438 -1.28125 0.0213358 0 0 1
1.23438 -1.27344 0.021781 0 0 1
1.23438 -1.26562 0.0222259 0 0 1
1.23438 -1.25781 0.022671 0 0 1
1.23438 -1.25 0.0231159 0 0 1
1.23438 -1.24219 0.0235608 0 0 1
1.23438 -1.23438 0.0240059 0 0 1
1.23438 -1.22656 0.0244508 0 0 1
1.23438 -1.21875 0.023721 0 0 1
1.23438 -1.21094 0.0215137 0 0 1
1.23438 -1.20312 0.0193064 0 0 1
1.23438 -1.19531 0.0205591 0 0 1
1.23438 -1.1875 0.017292 0 0 1
1.23438 -1.17969 0.0184412 0 0 1
1.23438 -1.17188 0.0195901 0 0 1
1.23438 -1.16406 0.0207393 0 0 1
1.23438 -1.15625 0.0218885 0 0 1
1.23438 -1.14844 0.0230377 0 0 1
1.23438 -1.14062 0.0241868 0 0 1
1.23438 -1.13281 0.025336 0 0 1
1.23438 -1.125 0.0258734 0 0 1
1.23438 -1.11719 0.0276341 0 0 1
1.23438 -1.10938 0.0263004 0 0 1
1.23438 -1.10156 0.0135252 0 0 1
1.23438 -1.09375 0.0117977 0 0 1
1.23438 -1.08594 0.0191548 0 0 1
1.23438 -1.07812 0.0203879 0 0 1
1.23438 -1.07031 0.021621 0 0 1
1.23438 -1.0625 0.0228448 0 0 1
1.23438 -1.05469 0.017292 0 0 1
1.23438 -1.04688 0.0182838 0 0 1
1.23438 -1.03906 0.0192757 0 0 1
1.23438 -1.03125 0.016896 0 0 1
1.23438 -1.02344 0.0175295 0 0 1
1.23438 -1.01562 0.018163 0 0 1
1.23438 -1.00781 0.0187964 0 0 1
1.23438 -1 0.0194299 0 0 1
1.23438 -0.992188 0.0220733 0 0 1
1.23438 -0.984375 0.0250609 0 0 1
1.23438 -0.976562 0.0261686 0 0 1
1.23438 -0.96875 0.0272763 0 0 1
1.23438 -0.960938 0.028384 0 0 1
1.23438 -0.953125 0.0294919 0 0 1
1.23438 -0.945312 0.0299964 0 0 1
1.23438 -0.9375 0.0284233 0 0 1
1.23438 -0.929688 0.0283971 0 0 1
1.23438 -0.921875 0.0283706 0 0 1
1.23438 -0.914062 0.0283444 0 0 1
1.23438 -0.90625 0.0283182 0 0 1
1.23438 -0.898438 0.0282919 0 0 1
1.23438 -0.890625 0.0282657 0 0 1
1.23438 -0.882812 0.0282393 0 0 1
1.23438 -0.875 0.028213 0 0 1
1.23438 -0.867188 0.0281868 0 0 1
1.23438 -0.859375 0.0281606 0 0 1
1.23438 -0.851562 0.0306873 0 0 1
1.23438 -0.84375 0.0322843 0 0 1
1.23438 -0.835938 0.0324602 0 0 1
1.23438 -0.828125 0.0326364 0 0 1
1.23438 -0.820312 0.0328124 0 0 1
1.23438 -0.8125 0.0329883 0 0 1
1.23438 -0.804688 0.0331643 0 0 1
1.23438 -0.796875 0.0187194 0 0 1
1.23438 -0.789062 0.0193436 0 0 1
1.23438 -0.78125 0.0199676 0 0 1
1.23438 -0.773438 0.0205917 0 0 1
1.23438 -0.765625 0.0212159 0 0 1
1.23438 -0.757812 0.0213411 0 0 1
1.23438 -0.75 0.0206931 0 0 1
1.23438 -0.742188 0.0203316 0 0 1
1.23438 -0.734375 0.0197623 0 0 1
1.23438 -0.726562 0.0208168 0 0 1
1.23438 -0.71875 0.0218716 0 0 1
1.23438 -0.710938 0.0229261 0 0 1
1.23438 -0.703125 0.0239806 0 0 1
1.23438 -0.695312 0.0250354 0 0 1
1.23438 -0.6875 0.0260899 0 0 1
1.23438 -0.679688 0.0271444 0 0 1
1.23438 -0.671875 0.028199 0 0 1
1.23438 -0.664062 0.0292537 0 0 1
1.23438 -0.65625 0.0299537 0 0 1
1.23438 -0.648438 0.0305777 0 0 1
1.23438 -0.640625 0.0312018 0 0 1
1.23438 -0.632812 0.031826 0 0 1
1.23438 -0.625 0.03245 0 0 1
1.23438 -0.617188 0.0330741 0 0 1
1.23438 -0.609375 0.0336983 0 0 1
1.23438 -0.601562 0.0343225 0 0 1
1.23438 -0.59375 0.0349467 0 0 1
1.23438 -0.585938 0.0355706 0 0 1
1.23438 -0.578125 0.0361948 0 0 1
1.23438 -0.570312 0.036819 0 0 1
1.23438 -0.5625 0.0374432 0 0 1
1.23438 -0.554688 0.0378275 0 0 1
1.23438 -0.546875 0.0386913 0 0 1
1.23438 -0.539062 0.0391481 0 0 1
1.23438 -0.53125 0.0393243 0 0 1
1.23438 -0.523438 0.0395002 0 0 1
1.23438 -0.515625 0.0396762 0 0 1
1.23438 -0.507812 0.0398521 0 0 1
1.23438 -0.5 0.0400281 0 0 1
1.23438 -0.492188 0.0402043 0 0 1
1.23438 -0.484375 0.0403802 0 0 1
1.23438 -0.476562 0.0405562 0 0 1
1.23438 -0.46875 0.040498 0 0 1
1.23438 -0.460938 0.0402322 0 0 1
1.23438 -0.453125 0.0399661 0 0 1
1.23438 -0.445312 0.0397003 0 0 1
1.23438 -0.4375 0.0394342 0 0 1
1.23438 -0.429688 0.0391684 0 0 1
1.23438 -0.421875 0.0389023 0 0 1
1.23438 -0.414062 0.0386364 0 0 1
1.23438 -0.40625 0.0383704 0 0 1
1.23438 -0.398438 0.0381045 0 0 1
1.23438 -0.390625 0.0378385 0 0 1
1.23438 -0.382812 0.0375726 0 0 1
1.23438 -0.375 0.0373065 0 0 1
1.23438 -0.367188 0.040457 0 0 1
1.23438 -0.359375 0.0378783 0 0 1
1.23438 -0.351562 0.0370517 0 0 1
1.23438 -0.34375 0.0353491 0 0 1
1.23438 -0.335938 0.0418785 0 0 1
1.23438 -0.328125 0.0381439 0 0 1
1.23438 -0.320312 0.0440378 0 0 1
1.23438 -0.3125 0.0461988 0 0 1
1.23438 -0.304688 0.0463228 0 0 1
1.23438 -0.296875 0.0481775 0 0 1
1.23438 -0.289062 0.0480189 0 0 1
1.23438 -0.28125 0.0493717 0 0 1
1.23438 -0.273438 0.0517776 0 0 1
1.23438 -0.265625 0.0541835 0 0 1
1.23438 -0.257812 0.0565894 0 0 1
1.23438 -0.25 0.0569866 0 0 1
1.23438 -0.242188 0.0604606 0 0 1
1.23438 -0.234375 0.0615685 0 0 1
1.23438 -0.226562 0.0641191 0 0 1
1.23438 -0.21875 0.0672109 0 0 1
1.23438 -0.210938 0.0692122 0 0 1
1.23438 -0.203125 0.0707617 0 0 1
1.23438 -0.195312 0.0725937 0 0 1
1.23438 -0.1875 0.0746987 0 0 1
1.23438 -0.179688 0.079757 0 0 1
1.23438 -0.171875 0.0806351 0 0 1
1.23438 -0.164062 0.0840476 0 0 1
1.23438 -0.15625 0.0872548 0 0 1
1.23438 -0.148438 0.0908728 0 0 1
1.23438 -0.140625 0.0953236 0 0 1
1.23438 -0.132812 0.0991418 0 0 1
1.23438 -0.125 0.108848 0 0 1
1.23438 -0.117188 0.111811 0 0 1
1.23438 -0.109375 0.116311 0 0 1
1.23438 -0.101562 0.122449 0 0 1
1.23438 -0.09375 0.128085 0 0 1
1.23438 -0.0859375 0.15041 0 0 1
1.23438 -0.078125 0.151844 0 0 1
1.23438 -0.0703125 0.180295 0 0 1
1.23438 -0.0625 0.247928 0 0 1
1.23438 -0.0546875 0.24853 0 0 1
1.23438 -0.046875 0.249133 0 0 1
1.24219 -2 0.013154 0 0 1
1.24219 -1.99219 0.0141242 0 0 1
1.24219 -1.98438 0.0150943 0 0 1
1.24219 -1.97656 0.0160644 0 0 1
1.24219 -1.96875 0.0170348 0 0 1
1.24219 -1.96094 0.0180049 0 0 1
1.24219 -1.95312 0.018975 0 0 1
1.24219 -1.94531 0.0199451 0 0 1
1.24219 -1.9375 0.0209153 0 0 1
1.24219 -1.92969 0.0218854 0 0 1
1.24219 -1.92188 0.0228555 0 0 1
1.24219 -1.91406 0.0238256 0 0 1
1.24219 -1.90625 0.0247958 0 0 1
1.24219 -1.89844 0.0201509 0 0 1
1.24219 -1.89062 0.0212088 0 0 1
1.24219 -1.88281 0.0222666 0 0 1
1.24219 -1.875 0.0233243 0 0 1
1.24219 -1.86719 0.0243821 0 0 1
1.24219 -1.85938 0.02544 0 0 1
1.24219 -1.85156 0.0264976 0 0 1
1.24219 -1.84375 0.0275555 0 0 1
1.24219 -1.83594 0.0286131 0 0 1
1.24219 -1.82812 0.029671 0 0 1
1.24219 -1.82031 0.0307288 0 0 1
1.24219 -1.8125 0.0317864 0 0 1
1.24219 -1.80469 0.0328443 0 0 1
1.24219 -1.79688 0.0339019 0 0 1
1.24219 -1.78906 0.0349598 0 0 1
1.24219 -1.78125 0.0360177 0 0 1
1.24219 -1.77344 0.0370753 0 0 1
1.24219 -1.76562 0.0259984 0 0 1
1.24219 -1.75781 0.0248387 0 0 1
1.24219 -1.75 0.0253592 0 0 1
1.24219 -1.74219 0.0258799 0 0 1
1.24219 -1.73438 0.0264003 0 0 1
1.24219 -1.72656 0.0269208 0 0 1
1.24219 -1.71875 0.0274415 0 0 1
1.24219 -1.71094 0.027962 0 0 1
1.24219 -1.70312 0.0284827 0 0 1
1.24219 -1.69531 0.0290031 0 0 1
1.24219 -1.6875 0.0295238 0 0 1
1.24219 -1.67969 0.0300443 0 0 1
1.24219 -1.67188 0.030565 0 0 1
1.24219 -1.66406 0.0310855 0 0 1
1.24219 -1.65625 0.0316062 0 0 1
1.24219 -1.64844 0.0321267 0 0 1
1.24219 -1.64062 0.0326474 0 0 1
1.24219 -1.63281 0.0331678 0 0 1
1.24219 -1.625 0.0336883 0 0 1
1.24219 -1.61719 0.034209 0 0 1
1.24219 -1.60938 0.0340073 0 0 1
1.24219 -1.60156 0.0337715 0 0 1
1.24219 -1.59375 0.0335357 0 0 1
1.24219 -1.58594 0.0332999 0 0 1
1.24219 -1.57812 0.0345771 0 0 1
1.24219 -1.57031 0.0368402 0 0 1
1.24219 -1.5625 0.037853 0 0 1
1.24219 -1.55469 0.0383737 0 0 1
1.24219 -1.54688 0.0388942 0 0 1
1.24219 -1.53906 0.0394146 0 0 1
1.24219 -1.53125 0.0399354 0 0 1
1.24219 -1.52344 0.0404558 0 0 1
1.24219 -1.51562 0.0409765 0 0 1
1.24219 -1.50781 0.0235014 0 0 1
1.24219 -1.5 0.024837 0 0 1
1.24219 -1.49219 0.0261726 0 0 1
1.24219 -1.48438 0.0275083 0 0 1
1.24219 -1.47656 0.0288441 0 0 1
1.24219 -1.46875 0.0301797 0 0 1
1.24219 -1.46094 0.0315154 0 0 1
1.24219 -1.45312 0.032851 0 0 1
1.24219 -1.44531 0.0341868 0 0 1
1.24219 -1.4375 0.0292006 0 0 1
1.24219 -1.42969 0.0318069 0 0 1
1.24219 -1.42188 0.0344131 0 0 1
1.24219 -1.41406 0.0370195 0 0 1
1.24219 -1.40625 0.0396256 0 0 1
1.24219 -1.39844 0.0422008 0 0 1
1.24219 -1.39062 0.0435367 0 0 1
1.24219 -1.38281 0.0448723 0 0 1
1.24219 -1.375 0.0462079 0 0 1
1.24219 -1.36719 0.0475435 0 0 1
1.24219 -1.35938 0.0488794 0 0 1
1.24219 -1.35156 0.0246096 0 0 1
1.24219 -1.34375 0.0252995 0 0 1
1.24219 -1.33594 0.0225565 0 0 1
1.24219 -1.32812 0.0231369 0 0 1
1.24219 -1.32031 0.0237172 0 0 1
1.24219 -1.3125 0.02244 0 0 1
1.24219 -1.30469 0.0225332 0 0 1
1.24219 -1.29688 0.0229783 0 0 1
1.24219 -1.28906 0.0234232 0 0 1
1.24219 -1.28125 0.0238681 0 0 1
1.24219 -1.27344 0.0243132 0 0 1
1.24219 -1.26562 0.0247581 0 0 1
1.24219 -1.25781 0.025203 0 0 1
1.24219 -1.25 0.0256481 0 0 1
1.24219 -1.24219 0.026093 0 0 1
1.24219 -1.23438 0.0265381 0 0 1
1.24219 -1.22656 0.026983 0 0 1
1.24219 -1.21875 0.0274279 0 0 1
1.24219 -1.21094 0.027873 0 0 1
1.24219 -1.20312 0.0273321 0 0 1
1.24219 -1.19531 0.0251248 0 0 1
1.24219 -1.1875 0.0229175 0 0 1
1.24219 -1.17969 0.0233235 0 0 1
1.24219 -1.17188 0.0202048 0 0 1
1.24219 -1.16406 0.021354 0 0 1
1.24219 -1.15625 0.0225031 0 0 1
1.24219 -1.14844 0.0236523 0 0 1
1.24219 -1.14062 0.0248015 0 0 1
1.24219 -1.13281 0.0259507 0 0 1
1.24219 -1.125 0.0270996 0 0 1
1.24219 -1.11719 0.0282488 0 0 1
1.24219 -1.10938 0.029398 0 0 1
1.24219 -1.10156 0.0305471 0 0 1
1.24219 -1.09375 0.0316963 0 0 1
1.24219 -1.08594 0.0260417 0 0 1
1.24219 -1.07812 0.0158768 0 0 1
1.24219 -1.07031 0.0223925 0 0 1
1.24219 -1.0625 0.0236256 0 0 1
1.24219 -1.05469 0.0248587 0 0 1
1.24219 -1.04688 0.0259023 0 0 1
1.24219 -1.03906 0.0266743 0 0 1
1.24219 -1.03125 0.0202055 0 0 1
1.24219 -1.02344 0.0211973 0 0 1
1.24219 -1.01562 0.0197163 0 0 1
1.24219 -1.00781 0.0203497 0 0 1
1.24219 -1 0.0209832 0 0 1
1.24219 -0.992188 0.0216165 0 0 1
1.24219 -0.984375 0.0222499 0 0 1
1.24219 -0.976562 0.0252702 0 0 1
1.24219 -0.96875 0.0273926 0 0 1
1.24219 -0.960938 0.0285003 0 0 1
1.24219 -0.953125 0.0296082 0 0 1
1.24219 -0.945312 0.03056 0 0 1
1.24219 -0.9375 0.0318236 0 0 1
1.24219 -0.929688 0.0324256 0 0 1
1.24219 -0.921875 0.0306835 0 0 1
1.24219 -0.914062 0.0306571 0 0 1
1.24219 -0.90625 0.0306308 0 0 1
1.24219 -0.898438 0.0306046 0 0 1
1.24219 -0.890625 0.0305784 0 0 1
1.24219 -0.882812 0.0305521 0 0 1
1.24219 -0.875 0.0305257 0 0 1
1.24219 -0.867188 0.0304995 0 0 1
1.24219 -0.859375 0.0304732 0 0 1
1.24219 -0.851562 0.030447 0 0 1
1.24219 -0.84375 0.0304208 0 0 1
1.24219 -0.835938 0.0338883 0 0 1
1.24219 -0.828125 0.0347135 0 0 1
1.24219 -0.820312 0.0348895 0 0 1
1.24219 -0.8125 0.0350657 0 0 1
1.24219 -0.804688 0.0352416 0 0 1
1.24219 -0.796875 0.0354176 0 0 1
1.24219 -0.789062 0.0355935 0 0 1
1.24219 -0.78125 0.0357695 0 0 1
1.24219 -0.773438 0.021323 0 0 1
1.24219 -0.765625 0.0219471 0 0 1
1.24219 -0.757812 0.0225713 0 0 1
1.24219 -0.75 0.0231953 0 0 1
1.24219 -0.742188 0.0238194 0 0 1
1.24219 -0.734375 0.0240262 0 0 1
1.24219 -0.726562 0.0234876 0 0 1
1.24219 -0.71875 0.0217557 0 0 1
1.24219 -0.710938 0.0227649 0 0 1
1.24219 -0.703125 0.0238647 0 0 1
1.24219 -0.695312 0.0249193 0 0 1
1.24219 -0.6875 0.025974 0 0 1
1.24219 -0.679688 0.0270286 0 0 1
1.24219 -0.671875 0.0280831 0 0 1
1.24219 -0.664062 0.0291378 0 0 1
1.24219 -0.65625 0.0301924 0 0 1
1.24219 -0.648438 0.0312469 0 0 1
1.24219 -0.640625 0.0319331 0 0 1
1.24219 -0.632812 0.0325572 0 0 1
1.24219 -0.625 0.0331814 0 0 1
1.24219 -0.617188 0.0338054 0 0 1
1.24219 -0.609375 0.0344296 0 0 1
1.24219 -0.601562 0.0350537 0 0 1
1.24219 -0.59375 0.0356779 0 0 1
1.24219 -0.585938 0.0363019 0 0 1
1.24219 -0.578125 0.036926 0 0 1
1.24219 -0.570312 0.0375502 0 0 1
1.24219 -0.5625 0.0381744 0 0 1
1.24219 -0.554688 0.0387983 0 0 1
1.24219 -0.546875 0.0394225 0 0 1
1.24219 -0.539062 0.0400467 0 0 1
1.24219 -0.53125 0.0406709 0 0 1
1.24219 -0.523438 0.0412951 0 0 1
1.24219 -0.515625 0.0417535 0 0 1
1.24219 -0.507812 0.0419295 0 0 1
1.24219 -0.5 0.0421054 0 0 1
1.24219 -0.492188 0.0422814 0 0 1
1.24219 -0.484375 0.0424576 0 0 1
1.24219 -0.476562 0.0422397 0 0 1
1.24219 -0.46875 0.0419738 0 0 1
1.24219 -0.460938 0.0417078 0 0 1
1.24219 -0.453125 0.0414419 0 0 1
1.24219 -0.445312 0.0411758 0 0 1
1.24219 -0.4375 0.04091 0 0 1
1.24219 -0.429688 0.0406439 0 0 1
1.24219 -0.421875 0.0403781 0 0 1
1.24219 -0.414062 0.040112 0 0 1
1.24219 -0.40625 0.0398462 0 0 1
1.24219 -0.398438 0.0395801 0 0 1
1.24219 -0.390625 0.0393143 0 0 1
1.24219 -0.382812 0.0390482 0 0 1
1.24219 -0.375 0.0419536 0 0 1
1.24219 -0.367188 0.040251 0 0 1
1.24219 -0.359375 0.0385485 0 0 1
1.24219 -0.351562 0.0368459 0 0 1
1.24219 -0.34375 0.0436649 0 0 1
1.24219 -0.335938 0.0399303 0 0 1
1.24219 -0.328125 0.0451298 0 0 1
1.24219 -0.320312 0.0470915 0 0 1
1.24219 -0.3125 0.0479686 0 0 1
1.24219 -0.304688 0.0497649 0 0 1
1.24219 -0.296875 0.0494721 0 0 1
1.24219 -0.289062 0.0518713 0 0 1
1.24219 -0.28125 0.0532568 0 0 1
1.24219 -0.273438 0.0556626 0 0 1
1.24219 -0.265625 0.0580685 0 0 1
1.24219 -0.257812 0.0600412 0 0 1
1.24219 -0.25 0.061703 0 0 1
1.24219 -0.242188 0.063535 0 0 1
1.24219 -0.234375 0.0661778 0 0 1
1.24219 -0.226562 0.0684903 0 0 1
1.24219 -0.21875 0.0700397 0 0 1
1.24219 -0.210938 0.0720818 0 0 1
1.24219 -0.203125 0.0745513 0 0 1
1.24219 -0.195312 0.0792468 0 0 1
1.24219 -0.1875 0.0799739 0 0 1
1.24219 -0.179688 0.0833864 0 0 1
1.24219 -0.171875 0.0863903 0 0 1
1.24219 -0.164062 0.0902116 0 0 1
1.24219 -0.15625 0.0943882 0 0 1
1.24219 -0.148438 0.0979102 0 0 1
1.24219 -0.140625 0.108046 0 0 1
1.24219 -0.132812 0.110997 0 0 1
1.24219 -0.125 0.115445 0 0 1
1.24219 -0.117188 0.121797 0 0 1
1.24219 -0.109375 0.126872 0 0 1
1.24219 -0.101562 0.148978 0 0 1
1.24219 -0.09375 0.150411 0 0 1
1.24219 -0.0859375 0.178741 0 0 1
1.24219 -0.078125 0.244782 0 0 1
1.24219 -0.0703125 0.245385 0 0 1
1.24219 -0.0625 0.245987 0 0 1
1.25 -2 0.0135474 0 0 1
1.25 -1.99219 0.0145175 0 0 1
1.25 -1.98438 0.0154877 0 0 1
1.25 -1.97656 0.0164578 0 0 1
1.25 -1.96875 0.0174279 0 0 1
1.25 -1.96094 0.018398 0 0 1
1.25 -1.95312 0.0193682 0 0 1
1.25 -1.94531 0.0203383 0 0 1
1.25 -1.9375 0.0213084 0 0 1
1.25 -1.92969 0.0222788 0 0 1
1.25 -1.92188 0.0232489 0 0 1
1.25 -1.91406 0.024219 0 0 1
1.25 -1.90625 0.0251892 0 0 1
1.25 -1.89844 0.0261593 0 0 1
1.25 -1.89062 0.0271294 0 0 1
1.25 -1.88281 0.0280995 0 0 1
1.25 -1.875 0.0290697 0 0 1
1.25 -1.86719 0.0251186 0 0 1
1.25 -1.85938 0.0261762 0 0 1
1.25 -1.85156 0.0272341 0 0 1
1.25 -1.84375 0.0282917 0 0 1
1.25 -1.83594 0.0293496 0 0 1
1.25 -1.82812 0.0304074 0 0 1
1.25 -1.82031 0.0314651 0 0 1
1.25 -1.8125 0.0325229 0 0 1
1.25 -1.80469 0.0335805 0 0 1
1.25 -1.79688 0.0346384 0 0 1
1.25 -1.78906 0.0356963 0 0 1
1.25 -1.78125 0.0367539 0 0 1
1.25 -1.77344 0.0378118 0 0 1
1.25 -1.76562 0.0388696 0 0 1
1.25 -1.75781 0.0278878 0 0 1
1.25 -1.75 0.0266979 0 0 1
1.25 -1.74219 0.0272186 0 0 1
1.25 -1.73438 0.027739 0 0 1
1.25 -1.72656 0.0282595 0 0 1
1.25 -1.71875 0.0287802 0 0 1
1.25 -1.71094 0.0293007 0 0 1
1.25 -1.70312 0.0298214 0 0 1
1.25 -1.69531 0.0303419 0 0 1
1.25 -1.6875 0.0308626 0 0 1
1.25 -1.67969 0.031383 0 0 1
1.25 -1.67188 0.0319037 0 0 1
1.25 -1.66406 0.0324242 0 0 1
1.25 -1.65625 0.0329449 0 0 1
1.25 -1.64844 0.0334654 0 0 1
1.25 -1.64062 0.0339861 0 0 1
1.25 -1.63281 0.0345066 0 0 1
1.25 -1.625 0.035027 0 0 1
1.25 -1.61719 0.0355477 0 0 1
1.25 -1.60938 0.0360682 0 0 1
1.25 -1.60156 0.0365889 0 0 1
1.25 -1.59375 0.0367398 0 0 1
1.25 -1.58594 0.036504 0 0 1
1.25 -1.57812 0.0362682 0 0 1
1.25 -1.57031 0.0369122 0 0 1
1.25 -1.5625 0.0391753 0 0 1
1.25 -1.55469 0.0397124 0 0 1
1.25 -1.54688 0.0402329 0 0 1
1.25 -1.53906 0.0407534 0 0 1
1.25 -1.53125 0.0412741 0 0 1
1.25 -1.52344 0.0417945 0 0 1
1.25 -1.51562 0.0423152 0 0 1
1.25 -1.50781 0.0428357 0 0 1
1.25 -1.5 0.0259495 0 0 1
1.25 -1.49219 0.0272851 0 0 1
1.25 -1.48438 0.0286207 0 0 1
1.25 -1.47656 0.0299566 0 0 1
1.25 -1.46875 0.0312922 0 0 1
1.25 -1.46094 0.0326278 0 0 1
1.25 -1.45312 0.0339634 0 0 1
1.25 -1.44531 0.0352993 0 0 1
1.25 -1.4375 0.0366349 0 0 1
1.25 -1.42969 0.0379705 0 0 1
1.25 -1.42188 0.0329924 0 0 1
1.25 -1.41406 0.0355985 0 0 1
1.25 -1.40625 0.0382049 0 0 1
1.25 -1.39844 0.0408111 0 0 1
1.25 -1.39062 0.0434175 0 0 1
1.25 -1.38281 0.0459847 0 0 1
1.25 -1.375 0.0473204 0 0 1
1.25 -1.36719 0.048656 0 0 1
1.25 -1.35938 0.0499918 0 0 1
1.25 -1.35156 0.0513275 0 0 1
1.25 -1.34375 0.0404537 0 0 1
1.25 -1.33594 0.0281644 0 0 1
1.25 -1.32812 0.0288544 0 0 1
1.25 -1.32031 0.0260475 0 0 1
1.25 -1.3125 0.0266278 0 0 1
1.25 -1.30469 0.0251846 0 0 1
1.25 -1.29688 0.0261233 0 0 1
1.25 -1.28906 0.0259554 0 0 1
1.25 -1.28125 0.0264003 0 0 1
1.25 -1.27344 0.0268455 0 0 1
1.25 -1.26562 0.0272903 0 0 1
1.25 -1.25781 0.0277352 0 0 1
1.25 -1.25 0.0281804 0 0 1
1.25 -1.24219 0.0286252 0 0 1
1.25 -1.23438 0.0290701 0 0 1
1.25 -1.22656 0.0295153 0 0 1
1.25 -1.21875 0.0299602 0 0 1
1.25 -1.21094 0.0304053 0 0 1
1.25 -1.20312 0.0308502 0 0 1
1.25 -1.19531 0.0312951 0 0 1
1.25 -1.1875 0.0309432 0 0 1
1.25 -1.17969 0.0287359 0 0 1
1.25 -1.17188 0.0265284 0 0 1
1.25 -1.16406 0.026088 0 0 1
1.25 -1.15625 0.0231178 0 0 1
1.25 -1.14844 0.024267 0 0 1
1.25 -1.14062 0.0254161 0 0 1
1.25 -1.13281 0.0265651 0 0 1
1.25 -1.125 0.0277143 0 0 1
1.25 -1.11719 0.0288634 0 0 1
1.25 -1.10938 0.0300126 0 0 1
1.25 -1.10156 0.0311618 0 0 1
1.25 -1.09375 0.032311 0 0 1
1.25 -1.08594 0.0334601 0 0 1
1.25 -1.07812 0.0346091 0 0 1
1.25 -1.07031 0.0289385 0 0 1
1.25 -1.0625 0.0236442 0 0 1
1.25 -1.05469 0.0166996 0 0 1
1.25 -1.04688 0.0268633 0 0 1
1.25 -1.03906 0.0280964 0 0 1
1.25 -1.03125 0.0289595 0 0 1
1.25 -1.02344 0.0297315 0 0 1
1.25 -1.01562 0.0305037 0 0 1
1.25 -1.00781 0.023119 0 0 1
1.25 -1 0.0225365 0 0 1
1.25 -0.992188 0.02317 0 0 1
1.25 -0.984375 0.0238032 0 0 1
1.25 -0.976562 0.0244367 0 0 1
1.25 -0.96875 0.0251629 0 0 1
1.25 -0.960938 0.0284672 0 0 1
1.25 -0.953125 0.0297246 0 0 1
1.25 -0.945312 0.0308323 0 0 1
1.25 -0.9375 0.03194 0 0 1
1.25 -0.929688 0.0330372 0 0 1
1.25 -0.921875 0.034029 0 0 1
1.25 -0.914062 0.0331244 0 0 1
1.25 -0.90625 0.0329437 0 0 1
1.25 -0.898438 0.0329173 0 0 1
1.25 -0.890625 0.032891 0 0 1
1.25 -0.882812 0.0328648 0 0 1
1.25 -0.875 0.0328386 0 0 1
1.25 -0.867188 0.0328124 0 0 1
1.25 -0.859375 0.0327859 0 0 1
1.25 -0.851562 0.0327597 0 0 1
1.25 -0.84375 0.0327334 0 0 1
1.25 -0.835938 0.0327072 0 0 1
1.25 -0.828125 0.032681 0 0 1
1.25 -0.820312 0.0369668 0 0 1
1.25 -0.8125 0.0371428 0 0 1
1.25 -0.804688 0.0373189 0 0 1
1.25 -0.796875 0.0374949 0 0 1
1.25 -0.789062 0.0376709 0 0 1
1.25 -0.78125 0.0378468 0 0 1
1.25 -0.773438 0.0380228 0 0 1
1.25 -0.765625 0.0381989 0 0 1
1.25 -0.757812 0.0383749 0 0 1
1.25 -0.75 0.0385509 0 0 1
1.25 -0.742188 0.0245507 0 0 1
1.25 -0.734375 0.0251749 0 0 1
1.25 -0.726562 0.025799 0 0 1
1.25 -0.71875 0.0264232 0 0 1
1.25 -0.710938 0.0267115 0 0 1
1.25 -0.703125 0.0262823 0 0 1
1.25 -0.695312 0.0248034 0 0 1
1.25 -0.6875 0.0255597 0 0 1
1.25 -0.679688 0.0269127 0 0 1
1.25 -0.671875 0.0279672 0 0 1
1.25 -0.664062 0.0290217 0 0 1
1.25 -0.65625 0.0300765 0 0 1
1.25 -0.648438 0.031131 0 0 1
1.25 -0.640625 0.0321856 0 0 1
1.25 -0.632812 0.0332403 0 0 1
1.25 -0.625 0.0339127 0 0 1
1.25 -0.617188 0.0345366 0 0 1
1.25 -0.609375 0.0351608 0 0 1
1.25 -0.601562 0.035785 0 0 1
1.25 -0.59375 0.0364091 0 0 1
1.25 -0.585938 0.0370333 0 0 1
1.25 -0.578125 0.0376573 0 0 1
1.25 -0.570312 0.0382814 0 0 1
1.25 -0.5625 0.0387676 0 0 1
1.25 -0.554688 0.0395298 0 0 1
1.25 -0.546875 0.0401537 0 0 1
1.25 -0.539062 0.0407779 0 0 1
1.25 -0.53125 0.0414021 0 0 1
1.25 -0.523438 0.0420263 0 0 1
1.25 -0.515625 0.0426502 0 0 1
1.25 -0.507812 0.0432744 0 0 1
1.25 -0.5 0.0438986 0 0 1
1.25 -0.492188 0.0442474 0 0 1
1.25 -0.484375 0.0439813 0 0 1
1.25 -0.476562 0.0437155 0 0 1
1.25 -0.46875 0.0434494 0 0 1
1.25 -0.460938 0.0431836 0 0 1
1.25 -0.453125 0.0429175 0 0 1
1.25 -0.445312 0.0426517 0 0 1
1.25 -0.4375 0.0423856 0 0 1
1.25 -0.429688 0.0421197 0 0 1
1.25 -0.421875 0.0418537 0 0 1
1.25 -0.414062 0.0415878 0 0 1
1.25 -0.40625 0.0413218 0 0 1
1.25 -0.398438 0.0410559 0 0 1
1.25 -0.390625 0.0407898 0 0 1
1.25 -0.382812 0.0434504 0 0 1
1.25 -0.375 0.0417478 0 0 1
1.25 -0.367188 0.0368617 0 0 1
1.25 -0.359375 0.0383425 0 0 1
1.25 -0.351562 0.0454516 0 0 1
1.25 -0.34375 0.0417171 0 0 1
1.25 -0.335938 0.0473328 0 0 1
1.25 -0.328125 0.0479844 0 0 1
1.25 -0.320312 0.0496144 0 0 1
1.25 -0.3125 0.051352 0 0 1
1.25 -0.304688 0.0509253 0 0 1
1.25 -0.296875 0.0533431 0 0 1
1.25 -0.289062 0.0547361 0 0 1
1.25 -0.28125 0.0571418 0 0 1
1.25 -0.273438 0.0584874 0 0 1
1.25 -0.265625 0.0610833 0 0 1
1.25 -0.257812 0.0629454 0 0 1
1.25 -0.25 0.0651448 0 0 1
1.25 -0.242188 0.0671837 0 0 1
1.25 -0.234375 0.0698307 0 0 1
1.25 -0.226562 0.0715702 0 0 1
1.25 -0.21875 0.0740397 0 0 1
1.25 -0.210938 0.0765092 0 0 1
1.25 -0.203125 0.0804656 0 0 1
1.25 -0.195312 0.0827253 0 0 1
1.25 -0.1875 0.0857959 0 0 1
1.25 -0.179688 0.0895505 0 0 1
1.25 -0.171875 0.0929632 0 0 1
1.25 -0.164062 0.0968502 0 0 1
1.25 -0.15625 0.106185 0 0 1
1.25 -0.148438 0.110132 0 0 1
1.25 -0.140625 0.114579 0 0 1
1.25 -0.132812 0.121145 0 0 1
1.25 -0.125 0.125658 0 0 1
1.25 -0.117188 0.147546 0 0 1
1.25 -0.109375 0.148979 0 0 1
1.25 -0.101562 0.177188 0 0 1
1.25 -0.09375 0.241637 0 0 1
1.25 -0.0859375 0.242239 0 0 1
1.25 -0.078125 0.242842 0 0 1
1.25781 -2 0.0139406 0 0 1
1.25781 -1.99219 0.0149107 0 0 1
1.25781 -1.98438 0.0158808 0 0 1
1.25781 -1.97656 0.0168509 0 0 1
1.25781 -1.96875 0.0178211 0 0 1
1.25781 -1.96094 0.0187914 0 0 1
1.25781 -1.95312 0.0197616 0 0 1
1.25781 -1.94531 0.0207317 0 0 1
1.25781 -1.9375 0.0217018 0 0 1
1.25781 -1.92969 0.0226719 0 0 1
1.25781 -1.92188 0.0236421 0 0 1
1.25781 -1.91406 0.0246122 0 0 1
1.25781 -1.90625 0.0255823 0 0 1
1.25781 -1.89844 0.0265524 0 0 1
1.25781 -1.89062 0.0275228 0 0 1
1.25781 -1.88281 0.0284929 0 0 1
1.25781 -1.875 0.0294631 0 0 1
1.25781 -1.86719 0.0304332 0 0 1
1.25781 -1.85938 0.0314033 0 0 1
1.25781 -1.85156 0.0323734 0 0 1
1.25781 -1.84375 0.0333436 0 0 1
1.25781 -1.83594 0.0343137 0 0 1
1.25781 -1.82812 0.0311437 0 0 1
1.25781 -1.82031 0.0322015 0 0 1
1.25781 -1.8125 0.0332592 0 0 1
1.25781 -1.80469 0.034317 0 0 1
1.25781 -1.79688 0.0353749 0 0 1
1.25781 -1.78906 0.0364325 0 0 1
1.25781 -1.78125 0.0374904 0 0 1
1.25781 -1.77344 0.0385482 0 0 1
1.25781 -1.76562 0.0396059 0 0 1
1.25781 -1.75781 0.0406637 0 0 1
1.25781 -1.75 0.0417213 0 0 1
1.25781 -1.74219 0.0303032 0 0 1
1.25781 -1.73438 0.0290778 0 0 1
1.25781 -1.72656 0.0295982 0 0 1
1.25781 -1.71875 0.0301189 0 0 1
1.25781 -1.71094 0.0306394 0 0 1
1.25781 -1.70312 0.0311601 0 0 1
1.25781 -1.69531 0.0316806 0 0 1
1.25781 -1.6875 0.0322013 0 0 1
1.25781 -1.67969 0.0327218 0 0 1
1.25781 -1.67188 0.0332425 0 0 1
1.25781 -1.66406 0.0337629 0 0 1
1.25781 -1.65625 0.0342836 0 0 1
1.25781 -1.64844 0.0348041 0 0 1
1.25781 -1.64062 0.0353248 0 0 1
1.25781 -1.63281 0.0358453 0 0 1
1.25781 -1.625 0.0363657 0 0 1
1.25781 -1.61719 0.0368865 0 0 1
1.25781 -1.60938 0.0374069 0 0 1
1.25781 -1.60156 0.0379276 0 0 1
1.25781 -1.59375 0.0384481 0 0 1
1.25781 -1.58594 0.0389688 0 0 1
1.25781 -1.57812 0.0394723 0 0 1
1.25781 -1.57031 0.0392365 0 0 1
1.25781 -1.5625 0.039247 0 0 1
1.25781 -1.55469 0.0410511 0 0 1
1.25781 -1.54688 0.0415716 0 0 1
1.25781 -1.53906 0.0420921 0 0 1
1.25781 -1.53125 0.0426128 0 0 1
1.25781 -1.52344 0.0431333 0 0 1
1.25781 -1.51562 0.043654 0 0 1
1.25781 -1.50781 0.0441744 0 0 1
1.25781 -1.5 0.0446951 0 0 1
1.25781 -1.49219 0.0452156 0 0 1
1.25781 -1.48438 0.0297332 0 0 1
1.25781 -1.47656 0.031069 0 0 1
1.25781 -1.46875 0.0324047 0 0 1
1.25781 -1.46094 0.0337403 0 0 1
1.25781 -1.45312 0.0350759 0 0 1
1.25781 -1.44531 0.0364118 0 0 1
1.25781 -1.4375 0.0377474 0 0 1
1.25781 -1.42969 0.039083 0 0 1
1.25781 -1.42188 0.0404186 0 0 1
1.25781 -1.41406 0.0417545 0 0 1
1.25781 -1.40625 0.0367839 0 0 1
1.25781 -1.39844 0.0393903 0 0 1
1.25781 -1.39062 0.0419965 0 0 1
1.25781 -1.38281 0.0446029 0 0 1
1.25781 -1.375 0.047209 0 0 1
1.25781 -1.36719 0.0497684 0 0 1
1.25781 -1.35938 0.0511043 0 0 1
1.25781 -1.35156 0.0524399 0 0 1
1.25781 -1.34375 0.0537755 0 0 1
1.25781 -1.33594 0.0551112 0 0 1
1.25781 -1.32812 0.0310295 0 0 1
1.25781 -1.32031 0.0317194 0 0 1
1.25781 -1.3125 0.0324094 0 0 1
1.25781 -1.30469 0.0295384 0 0 1
1.25781 -1.29688 0.0301185 0 0 1
1.25781 -1.28906 0.028868 0 0 1
1.25781 -1.28125 0.0298066 0 0 1
1.25781 -1.27344 0.0293775 0 0 1
1.25781 -1.26562 0.0298226 0 0 1
1.25781 -1.25781 0.0302675 0 0 1
1.25781 -1.25 0.0307126 0 0 1
1.25781 -1.24219 0.0311575 0 0 1
1.25781 -1.23438 0.0316024 0 0 1
1.25781 -1.22656 0.0320475 0 0 1
1.25781 -1.21875 0.0324924 0 0 1
1.25781 -1.21094 0.0329373 0 0 1
1.25781 -1.20312 0.0333824 0 0 1
1.25781 -1.19531 0.0338273 0 0 1
1.25781 -1.1875 0.0342724 0 0 1
1.25781 -1.17969 0.0347173 0 0 1
1.25781 -1.17188 0.0345542 0 0 1
1.25781 -1.16406 0.0323467 0 0 1
1.25781 -1.15625 0.0301394 0 0 1
1.25781 -1.14844 0.0288522 0 0 1
1.25781 -1.14062 0.0260305 0 0 1
1.25781 -1.13281 0.0271797 0 0 1
1.25781 -1.125 0.0283289 0 0 1
1.25781 -1.11719 0.0294781 0 0 1
1.25781 -1.10938 0.0306273 0 0 1
1.25781 -1.10156 0.0317764 0 0 1
1.25781 -1.09375 0.0329254 0 0 1
1.25781 -1.08594 0.0340745 0 0 1
1.25781 -1.07812 0.0352237 0 0 1
1.25781 -1.07031 0.0363729 0 0 1
1.25781 -1.0625 0.0375221 0 0 1
1.25781 -1.05469 0.0318351 0 0 1
1.25781 -1.04688 0.0268612 0 0 1
1.25781 -1.03906 0.0221586 0 0 1
1.25781 -1.03125 0.0301011 0 0 1
1.25781 -1.02344 0.0312448 0 0 1
1.25781 -1.01562 0.0320168 0 0 1
1.25781 -1.00781 0.032789 0 0 1
1.25781 -1 0.033561 0 0 1
1.25781 -0.992188 0.0250406 0 0 1
1.25781 -0.984375 0.0253565 0 0 1
1.25781 -0.976562 0.02599 0 0 1
1.25781 -0.96875 0.0266235 0 0 1
1.25781 -0.960938 0.027257 0 0 1
1.25781 -0.953125 0.0283599 0 0 1
1.25781 -0.945312 0.0309486 0 0 1
1.25781 -0.9375 0.0319834 0 0 1
1.25781 -0.929688 0.0329752 0 0 1
1.25781 -0.921875 0.033967 0 0 1
1.25781 -0.914062 0.0349588 0 0 1
1.25781 -0.90625 0.0359507 0 0 1
1.25781 -0.898438 0.0369425 0 0 1
1.25781 -0.890625 0.0352039 0 0 1
1.25781 -0.882812 0.0351775 0 0 1
1.25781 -0.875 0.0351512 0 0 1
1.25781 -0.867188 0.035125 0 0 1
1.25781 -0.859375 0.0350988 0 0 1
1.25781 -0.851562 0.0350726 0 0 1
1.25781 -0.84375 0.0350461 0 0 1
1.25781 -0.835938 0.0350199 0 0 1
1.25781 -0.828125 0.0349936 0 0 1
1.25781 -0.820312 0.0349674 0 0 1
1.25781 -0.8125 0.0356426 0 0 1
1.25781 -0.804688 0.0392597 0 0 1
1.25781 -0.796875 0.0395722 0 0 1
1.25781 -0.789062 0.0397482 0 0 1
1.25781 -0.78125 0.0399241 0 0 1
1.25781 -0.773438 0.0401001 0 0 1
1.25781 -0.765625 0.0402761 0 0 1
1.25781 -0.757812 0.0404522 0 0 1
1.25781 -0.75 0.0406282 0 0 1
1.25781 -0.742188 0.0408041 0 0 1
1.25781 -0.734375 0.0409801 0 0 1
1.25781 -0.726562 0.0411561 0 0 1
1.25781 -0.71875 0.0271544 0 0 1
1.25781 -0.710938 0.0277784 0 0 1
1.25781 -0.703125 0.0284026 0 0 1
1.25781 -0.695312 0.0290267 0 0 1
1.25781 -0.6875 0.0293965 0 0 1
1.25781 -0.679688 0.0291438 0 0 1
1.25781 -0.671875 0.0278513 0 0 1
1.25781 -0.664062 0.0283544 0 0 1
1.25781 -0.65625 0.0299606 0 0 1
1.25781 -0.648438 0.0310152 0 0 1
1.25781 -0.640625 0.0320697 0 0 1
1.25781 -0.632812 0.0331244 0 0 1
1.25781 -0.625 0.034179 0 0 1
1.25781 -0.617188 0.0352335 0 0 1
1.25781 -0.609375 0.035892 0 0 1
1.25781 -0.601562 0.0365162 0 0 1
1.25781 -0.59375 0.0371404 0 0 1
1.25781 -0.585938 0.0377645 0 0 1
1.25781 -0.578125 0.0383885 0 0 1
1.25781 -0.570312 0.0390127 0 0 1
1.25781 -0.5625 0.0396369 0 0 1
1.25781 -0.554688 0.040261 0 0 1
1.25781 -0.546875 0.040885 0 0 1
1.25781 -0.539062 0.0415092 0 0 1
1.25781 -0.53125 0.0421333 0 0 1
1.25781 -0.523438 0.0427575 0 0 1
1.25781 -0.515625 0.0433817 0 0 1
1.25781 -0.507812 0.0440056 0 0 1
1.25781 -0.5 0.0446298 0 0 1
1.25781 -0.492188 0.045254 0 0 1
1.25781 -0.484375 0.0454571 0 0 1
1.25781 -0.476562 0.045191 0 0 1
1.25781 -0.46875 0.0449252 0 0 1
1.25781 -0.460938 0.0446591 0 0 1
1.25781 -0.453125 0.0443933 0 0 1
1.25781 -0.445312 0.0441272 0 0 1
1.25781 -0.4375 0.0438614 0 0 1
1.25781 -0.429688 0.0435953 0 0 1
1.25781 -0.421875 0.0433295 0 0 1
1.25781 -0.414062 0.0430634 0 0 1
1.25781 -0.40625 0.0427976 0 0 1
1.25781 -0.398438 0.0425315 0 0 1
1.25781 -0.390625 0.0449469 0 0 1
1.25781 -0.382812 0.0432444 0 0 1
1.25781 -0.375 0.0386088 0 0 1
1.25781 -0.367188 0.0398393 0 0 1
1.25781 -0.359375 0.0467086 0 0 1
1.25781 -0.351562 0.0435038 0 0 1
1.25781 -0.34375 0.0485129 0 0 1
1.25781 -0.335938 0.048877 0 0 1
1.25781 -0.328125 0.05126 0 0 1
1.25781 -0.320312 0.0529394 0 0 1
1.25781 -0.3125 0.0539088 0 0 1
1.25781 -0.304688 0.0547962 0 0 1
1.25781 -0.296875 0.0562153 0 0 1
1.25781 -0.289062 0.0586212 0 0 1
1.25781 -0.28125 0.0610271 0 0 1
1.25781 -0.273438 0.0630798 0 0 1
1.25781 -0.265625 0.0641878 0 0 1
1.25781 -0.257812 0.0670462 0 0 1
1.25781 -0.25 0.0692666 0 0 1
1.25781 -0.242188 0.0710583 0 0 1
1.25781 -0.234375 0.0735278 0 0 1
1.25781 -0.226562 0.0759974 0 0 1
1.25781 -0.21875 0.0804324 0 0 1
1.25781 -0.210938 0.0820642 0 0 1
1.25781 -0.203125 0.0852013 0 0 1
1.25781 -0.195312 0.0888758 0 0 1
1.25781 -0.1875 0.0923021 0 0 1
1.25781 -0.179688 0.0962324 0 0 1
1.25781 -0.171875 0.104323 0 0 1
1.25781 -0.164062 0.109266 0 0 1
1.25781 -0.15625 0.113713 0 0 1
1.25781 -0.148438 0.120466 0 0 1
1.25781 -0.140625 0.14468 0 0 1
1.25781 -0.132812 0.146113 0 0 1
1.25781 -0.125 0.147547 0 0 1
1.25781 -0.117188 0.175635 0 0 1
1.25781 -0.109375 0.238491 0 0 1
1.25781 -0.101562 0.239094 0 0 1
1.25781 -0.09375 0.239696 0 0 1
1.26562 -2 0.0143337 0 0 1
1.26562 -1.99219 0.0153041 0 0 1
1.26562 -1.98438 0.0162742 0 0 1
1.26562 -1.97656 0.0172443 0 0 1
1.26562 -1.96875 0.0182145 0 0 1
1.26562 -1.96094 0.0191846 0 0 1
1.26562 -1.95312 0.0201547 0 0 1
1.26562 -1.94531 0.0211248 0 0 1
1.26562 -1.9375 0.022095 0 0 1
1.26562 -1.92969 0.0230651 0 0 1
1.26562 -1.92188 0.0240355 0 0 1
1.26562 -1.91406 0.0250056 0 0 1
1.26562 -1.90625 0.0259757 0 0 1
1.26562 -1.89844 0.0269458 0 0 1
1.26562 -1.89062 0.027916 0 0 1
1.26562 -1.88281 0.0288861 0 0 1
1.26562 -1.875 0.0298562 0 0 1
1.26562 -1.86719 0.0308263 0 0 1
1.26562 -1.85938 0.0317967 0 0 1
1.26562 -1.85156 0.0327668 0 0 1
1.26562 -1.84375 0.0337369 0 0 1
1.26562 -1.83594 0.0347071 0 0 1
1.26562 -1.82812 0.0356772 0 0 1
1.26562 -1.82031 0.0366473 0 0 1
1.26562 -1.8125 0.0376174 0 0 1
1.26562 -1.80469 0.0385876 0 0 1
1.26562 -1.79688 0.0361111 0 0 1
1.26562 -1.78906 0.037169 0 0 1
1.26562 -1.78125 0.0382268 0 0 1
1.26562 -1.77344 0.0392845 0 0 1
1.26562 -1.76562 0.0403423 0 0 1
1.26562 -1.75781 0.0414002 0 0 1
1.26562 -1.75 0.0424578 0 0 1
1.26562 -1.74219 0.0435157 0 0 1
1.26562 -1.73438 0.0321927 0 0 1
1.26562 -1.72656 0.030937 0 0 1
1.26562 -1.71875 0.0314577 0 0 1
1.26562 -1.71094 0.0319781 0 0 1
1.26562 -1.70312 0.0324988 0 0 1
1.26562 -1.69531 0.0330193 0 0 1
1.26562 -1.6875 0.03354 0 0 1
1.26562 -1.67969 0.0340605 0 0 1
1.26562 -1.67188 0.0345812 0 0 1
1.26562 -1.66406 0.0351017 0 0 1
1.26562 -1.65625 0.0356224 0 0 1
1.26562 -1.64844 0.0361428 0 0 1
1.26562 -1.64062 0.0366635 0 0 1
1.26562 -1.63281 0.037184 0 0 1
1.26562 -1.625 0.0377045 0 0 1
1.26562 -1.61719 0.0382252 0 0 1
1.26562 -1.60938 0.0387456 0 0 1
1.26562 -1.60156 0.0392663 0 0 1
1.26562 -1.59375 0.0397868 0 0 1
1.26562 -1.58594 0.0403075 0 0 1
1.26562 -1.57812 0.040828 0 0 1
1.26562 -1.57031 0.0413487 0 0 1
1.26562 -1.5625 0.0418692 0 0 1
1.26562 -1.55469 0.0419691 0 0 1
1.26562 -1.54688 0.0429103 0 0 1
1.26562 -1.53906 0.0434308 0 0 1
1.26562 -1.53125 0.0439515 0 0 1
1.26562 -1.52344 0.044472 0 0 1
1.26562 -1.51562 0.0449927 0 0 1
1.26562 -1.50781 0.0455132 0 0 1
1.26562 -1.5 0.0460339 0 0 1
1.26562 -1.49219 0.0465543 0 0 1
1.26562 -1.48438 0.047075 0 0 1
1.26562 -1.47656 0.0321815 0 0 1
1.26562 -1.46875 0.0335171 0 0 1
1.26562 -1.46094 0.0348527 0 0 1
1.26562 -1.45312 0.0361884 0 0 1
1.26562 -1.44531 0.0375242 0 0 1
1.26562 -1.4375 0.0388598 0 0 1
1.26562 -1.42969 0.0401955 0 0 1
1.26562 -1.42188 0.0415311 0 0 1
1.26562 -1.41406 0.0428669 0 0 1
1.26562 -1.40625 0.0442026 0 0 1
1.26562 -1.39844 0.0455382 0 0 1
1.26562 -1.39062 0.0405757 0 0 1
1.26562 -1.38281 0.0431819 0 0 1
1.26562 -1.375 0.0457883 0 0 1
1.26562 -1.36719 0.0483944 0 0 1
1.26562 -1.35938 0.0510008 0 0 1
1.26562 -1.35156 0.0535524 0 0 1
1.26562 -1.34375 0.054888 0 0 1
1.26562 -1.33594 0.0562236 0 0 1
1.26562 -1.32812 0.0574865 0 0 1
1.26562 -1.32031 0.0464244 0 0 1
1.26562 -1.3125 0.0345843 0 0 1
1.26562 -1.30469 0.0352743 0 0 1
1.26562 -1.29688 0.0324488 0 0 1
1.26562 -1.28906 0.0330291 0 0 1
1.26562 -1.28125 0.0336094 0 0 1
1.26562 -1.27344 0.0325513 0 0 1
1.26562 -1.26562 0.0334897 0 0 1
1.26562 -1.25781 0.0327997 0 0 1
1.26562 -1.25 0.0332446 0 0 1
1.26562 -1.24219 0.0336897 0 0 1
1.26562 -1.23438 0.0341346 0 0 1
1.26562 -1.22656 0.0345795 0 0 1
1.26562 -1.21875 0.0350246 0 0 1
1.26562 -1.21094 0.0354695 0 0 1
1.26562 -1.20312 0.0359147 0 0 1
1.26562 -1.19531 0.0363595 0 0 1
1.26562 -1.1875 0.0368044 0 0 1
1.26562 -1.17969 0.0372496 0 0 1
1.26562 -1.17188 0.0376945 0 0 1
1.26562 -1.16406 0.0381393 0 0 1
1.26562 -1.15625 0.0381653 0 0 1
1.26562 -1.14844 0.0359578 0 0 1
1.26562 -1.14062 0.0337505 0 0 1
1.26562 -1.13281 0.0316167 0 0 1
1.26562 -1.125 0.0289435 0 0 1
1.26562 -1.11719 0.0300927 0 0 1
1.26562 -1.10938 0.0312419 0 0 1
1.26562 -1.10156 0.0323908 0 0 1
1.26562 -1.09375 0.03354 0 0 1
1.26562 -1.08594 0.0346892 0 0 1
1.26562 -1.07812 0.0358384 0 0 1
1.26562 -1.07031 0.0369875 0 0 1
1.26562 -1.0625 0.0381367 0 0 1
1.26562 -1.05469 0.0392859 0 0 1
1.26562 -1.04688 0.0404348 0 0 1
1.26562 -1.03906 0.0322773 0 0 1
1.26562 -1.03125 0.0300782 0 0 1
1.26562 -1.02344 0.0321057 0 0 1
1.26562 -1.01562 0.0243754 0 0 1
1.26562 -1.00781 0.034302 0 0 1
1.26562 -1 0.035074 0 0 1
1.26562 -0.992188 0.0358462 0 0 1
1.26562 -0.984375 0.0361326 0 0 1
1.26562 -0.976562 0.0373905 0 0 1
1.26562 -0.96875 0.0279541 0 0 1
1.26562 -0.960938 0.0288103 0 0 1
1.26562 -0.953125 0.0294437 0 0 1
1.26562 -0.945312 0.030077 0 0 1
1.26562 -0.9375 0.0315568 0 0 1
1.26562 -0.929688 0.0329132 0 0 1
1.26562 -0.921875 0.033905 0 0 1
1.26562 -0.914062 0.0348969 0 0 1
1.26562 -0.90625 0.0358887 0 0 1
1.26562 -0.898438 0.0368805 0 0 1
1.26562 -0.890625 0.0378723 0 0 1
1.26562 -0.882812 0.0388641 0 0 1
1.26562 -0.875 0.039856 0 0 1
1.26562 -0.867188 0.0374377 0 0 1
1.26562 -0.859375 0.0374115 0 0 1
1.26562 -0.851562 0.0373852 0 0 1
1.26562 -0.84375 0.037359 0 0 1
1.26562 -0.835938 0.0373325 0 0 1
1.26562 -0.828125 0.0373063 0 0 1
1.26562 -0.820312 0.0372801 0 0 1
1.26562 -0.8125 0.0372539 0 0 1
1.26562 -0.804688 0.0372276 0 0 1
1.26562 -0.796875 0.0388436 0 0 1
1.26562 -0.789062 0.0413897 0 0 1
1.26562 -0.78125 0.0420015 0 0 1
1.26562 -0.773438 0.0421774 0 0 1
1.26562 -0.765625 0.0423534 0 0 1
1.26562 -0.757812 0.0425293 0 0 1
1.26562 -0.75 0.0427053 0 0 1
1.26562 -0.742188 0.0428815 0 0 1
1.26562 -0.734375 0.0430574 0 0 1
1.26562 -0.726562 0.0432334 0 0 1
1.26562 -0.71875 0.0434093 0 0 1
1.26562 -0.710938 0.0415699 0 0 1
1.26562 -0.703125 0.0415959 0 0 1
1.26562 -0.695312 0.0416217 0 0 1
1.26562 -0.6875 0.0303822 0 0 1
1.26562 -0.679688 0.0310063 0 0 1
1.26562 -0.671875 0.0316303 0 0 1
1.26562 -0.664062 0.0320818 0 0 1
1.26562 -0.65625 0.0320482 0 0 1
1.26562 -0.648438 0.0308993 0 0 1
1.26562 -0.640625 0.0311491 0 0 1
1.26562 -0.632812 0.0330086 0 0 1
1.26562 -0.625 0.0340631 0 0 1
1.26562 -0.617188 0.0351176 0 0 1
1.26562 -0.609375 0.0361722 0 0 1
1.26562 -0.601562 0.0371318 0 0 1
1.26562 -0.59375 0.0377936 0 0 1
1.26562 -0.585938 0.0384555 0 0 1
1.26562 -0.578125 0.0391173 0 0 1
1.26562 -0.570312 0.0397439 0 0 1
1.26562 -0.5625 0.0403681 0 0 1
1.26562 -0.554688 0.0409923 0 0 1
1.26562 -0.546875 0.0416164 0 0 1
1.26562 -0.539062 0.0415254 0 0 1
1.26562 -0.53125 0.0428646 0 0 1
1.26562 -0.523438 0.0434887 0 0 1
1.26562 -0.515625 0.0441129 0 0 1
1.26562 -0.507812 0.0447369 0 0 1
1.26562 -0.5 0.045361 0 0 1
1.26562 -0.492188 0.0459852 0 0 1
1.26562 -0.484375 0.0466094 0 0 1
1.26562 -0.476562 0.0466669 0 0 1
