0.726562 1.35938 -0.845157 0 0 1
0.726562 1.36719 -0.84443 0 0 1
0.726562 1.375 -0.845488 0 0 1
0.726562 1.38281 -0.844595 0 0 1
0.726562 1.39062 -0.842999 0 0 1
0.726562 1.39844 -0.841176 0 0 1
0.726562 1.40625 -0.837993 0 0 1
0.726562 1.41406 -0.840345 0 0 1
0.726562 1.42188 -0.840178 0 0 1
0.726562 1.42969 -0.845137 0 0 1
0.726562 1.4375 -0.847095 0 0 1
0.726562 1.44531 -0.848599 0 0 1
0.726562 1.45312 -0.848341 0 0 1
0.726562 1.46094 -0.848782 0 0 1
0.726562 1.46875 -0.848913 0 0 1
0.726562 1.47656 -0.849181 0 0 1
0.726562 1.48438 -0.848072 0 0 1
0.726562 1.49219 -0.844927 0 0 1
0.726562 1.5 -0.837743 0 0 1
0.726562 1.50781 -0.832635 0 0 1
0.726562 1.51562 -0.824365 0 0 1
0.726562 1.52344 -0.79686 0 0 1
0.726562 1.53125 -0.793523 0 0 1
0.726562 1.53906 -0.78996 0 0 1
0.734375 1.09375 -0.739148 0 0 1
0.734375 1.10156 -0.746348 0 0 1
0.734375 1.10938 -0.751987 0 0 1
0.734375 1.11719 -0.7637 0 0 1
0.734375 1.125 -0.776094 0 0 1
0.734375 1.13281 -0.782478 0 0 1
0.734375 1.14062 -0.790966 0 0 1
0.734375 1.14844 -0.88782 0 0 1
0.734375 1.15625 -0.901309 0 0 1
0.734375 1.16406 -0.905637 0 0 1
0.734375 1.17188 -0.9169 0 0 1
0.734375 1.17969 -0.92299 0 0 1
0.734375 1.1875 -0.936615 0 0 1
0.734375 1.19531 -0.942537 0 0 1
0.734375 1.20312 -0.948641 0 0 1
0.734375 1.21094 -0.952107 0 0 1
0.734375 1.21875 -0.956497 0 0 1
0.734375 1.22656 -0.957245 0 0 1
0.734375 1.23438 -0.961818 0 0 1
0.734375 1.24219 -0.961906 0 0 1
0.734375 1.25 -0.964361 0 0 1
0.734375 1.25781 -0.966479 0 0 1
0.734375 1.26562 -0.961191 0 0 1
0.734375 1.27344 -0.962986 0 0 1
0.734375 1.28125 -0.958508 0 0 1
0.734375 1.28906 -0.952532 0 0 1
0.734375 1.29688 -0.680557 0 0 1
0.734375 1.30469 -0.940701 0 0 1
0.734375 1.3125 -0.905139 0 0 1
0.734375 1.32031 -0.891787 0 0 1
0.734375 1.32812 -0.871295 0 0 1
0.734375 1.33594 -0.853941 0 0 1
0.734375 1.34375 -0.847484 0 0 1
0.734375 1.35156 -0.844863 0 0 1
0.734375 1.35938 -0.843374 0 0 1
0.734375 1.36719 -0.843629 0 0 1
0.734375 1.375 -0.842583 0 0 1
0.734375 1.38281 -0.840715 0 0 1
0.734375 1.39062 -0.838704 0 0 1
0.734375 1.39844 -0.831938 0 0 1
0.734375 1.40625 -0.832199 0 0 1
0.734375 1.41406 -0.835305 0 0 1
0.734375 1.42188 -0.840085 0 0 1
0.734375 1.42969 -0.84178 0 0 1
0.734375 1.4375 -0.844489 0 0 1
0.734375 1.44531 -0.843632 0 0 1
0.734375 1.45312 -0.844567 0 0 1
0.734375 1.46094 -0.844455 0 0 1
0.734375 1.46875 -0.843833 0 0 1
0.734375 1.47656 -0.844041 0 0 1
0.734375 1.48438 -0.842667 0 0 1
0.734375 1.49219 -0.841156 0 0 1
0.734375 1.5 -0.83663 0 0 1
0.734375 1.50781 -0.81893 0 0 1
0.734375 1.51562 -0.79745 0 0 1
0.734375 1.52344 -0.789842 0 0 1
0.734375 1.53125 -0.786208 0 0 1
0.742188 1.08594 -0.731721 0 0 1
0.742188 1.09375 -0.740231 0 0 1
0.742188 1.10156 -0.751449 0 0 1
0.742188 1.10938 -0.765592 0 0 1
0.742188 1.11719 -0.776921 0 0 1
0.742188 1.125 -0.784972 0 0 1
0.742188 1.13281 -0.795738 0 0 1
0.742188 1.14062 -0.886765 0 0 1
0.742188 1.14844 -0.900051 0 0 1
0.742188 1.15625 -0.90991 0 0 1
0.742188 1.16406 -0.917422 0 0 1
0.742188 1.17188 -0.926412 0 0 1
0.742188 1.17969 -0.935318 0 0 1
0.742188 1.1875 -0.944826 0 0 1
0.742188 1.19531 -0.953029 0 0 1
0.742188 1.20312 -0.961288 0 0 1
0.742188 1.21094 -0.964436 0 0 1
0.742188 1.21875 -0.965706 0 0 1
0.742188 1.22656 -0.970182 0 0 1
0.742188 1.23438 -0.968398 0 0 1
0.742188 1.24219 -0.973271 0 0 1
0.742188 1.25 -0.973405 0 0 1
0.742188 1.25781 -0.973881 0 0 1
0.742188 1.26562 -0.973588 0 0 1
0.742188 1.27344 -0.973331 0 0 1
0.742188 1.28125 -0.970471 0 0 1
0.742188 1.28906 -0.970101 0 0 1
0.742188 1.29688 -0.961296 0 0 1
0.742188 1.30469 -0.7018 0 0 1
0.742188 1.3125 -0.919138 0 0 1
0.742188 1.32031 -0.885315 0 0 1
0.742188 1.32812 -0.866707 0 0 1
0.742188 1.33594 -0.849534 0 0 1
0.742188 1.34375 -0.846136 0 0 1
0.742188 1.35156 -0.842903 0 0 1
0.742188 1.35938 -0.841391 0 0 1
0.742188 1.36719 -0.838832 0 0 1
0.742188 1.375 -0.835531 0 0 1
0.742188 1.38281 -0.835051 0 0 1
0.742188 1.39062 -0.829056 0 0 1
0.742188 1.39844 -0.823492 0 0 1
0.742188 1.40625 -0.82732 0 0 1
0.742188 1.41406 -0.831618 0 0 1
0.742188 1.42188 -0.835872 0 0 1
0.742188 1.42969 -0.836321 0 0 1
0.742188 1.4375 -0.839232 0 0 1
0.742188 1.44531 -0.839939 0 0 1
0.742188 1.45312 -0.839043 0 0 1
0.742188 1.46094 -0.838407 0 0 1
0.742188 1.46875 -0.839099 0 0 1
0.742188 1.47656 -0.838551 0 0 1
0.742188 1.48438 -0.836937 0 0 1
0.742188 1.49219 -0.835216 0 0 1
0.742188 1.5 -0.824707 0 0 1
0.742188 1.50781 -0.805506 0 0 1
0.742188 1.51562 -0.794089 0 0 1
0.742188 1.52344 -0.78666 0 0 1
0.75 1.07812 -0.718523 0 0 1
0.75 1.08594 -0.73527 0 0 1
0.75 1.09375 -0.746584 0 0 1
0.75 1.10156 -0.765553 0 0 1
0.75 1.10938 -0.780851 0 0 1
0.75 1.11719 -0.790489 0 0 1
0.75 1.125 -0.870576 0 0 1
0.75 1.13281 -0.892257 0 0 1
0.75 1.14062 -0.900355 0 0 1
0.75 1.14844 -0.911475 0 0 1
0.75 1.15625 -0.919554 0 0 1
0.75 1.16406 -0.924878 0 0 1
0.75 1.17188 -0.933891 0 0 1
0.75 1.17969 -0.945023 0 0 1
0.75 1.1875 -0.957607 0 0 1
0.75 1.19531 -0.96514 0 0 1
0.75 1.20312 -0.971107 0 0 1
0.75 1.21094 -0.976672 0 0 1
0.75 1.21875 -0.979351 0 0 1
0.75 1.22656 -0.979321 0 0 1
0.75 1.23438 -0.979 0 0 1
0.75 1.24219 -0.978835 0 0 1
0.75 1.25 -0.981776 0 0 1
0.75 1.25781 -0.982626 0 0 1
0.75 1.26562 -0.979904 0 0 1
0.75 1.27344 -0.983078 0 0 1
0.75 1.28125 -0.977479 0 0 1
0.75 1.28906 -0.976566 0 0 1
0.75 1.29688 -0.975759 0 0 1
0.75 1.30469 -0.959083 0 0 1
0.75 1.3125 -0.948072 0 0 1
0.75 1.32031 -0.878127 0 0 1
0.75 1.32812 -0.860339 0 0 1
0.75 1.33594 -0.848329 0 0 1
0.75 1.34375 -0.841405 0 0 1
0.75 1.35156 -0.839519 0 0 1
0.75 1.35938 -0.837751 0 0 1
0.75 1.36719 -0.834058 0 0 1
0.75 1.375 -0.82977 0 0 1
0.75 1.38281 -0.823606 0 0 1
0.75 1.39062 -0.815356 0 0 1
0.75 1.39844 -0.813709 0 0 1
0.75 1.40625 -0.82025 0 0 1
0.75 1.41406 -0.823948 0 0 1
0.75 1.42188 -0.828926 0 0 1
0.75 1.42969 -0.831587 0 0 1
0.75 1.4375 -0.832982 0 0 1
0.75 1.44531 -0.833777 0 0 1
0.75 1.45312 -0.833107 0 0 1
0.75 1.46094 -0.832131 0 0 1
0.75 1.46875 -0.831879 0 0 1
0.75 1.47656 -0.830634 0 0 1
0.75 1.48438 -0.827064 0 0 1
0.75 1.49219 -0.82098 0 0 1
0.75 1.5 -0.803435 0 0 1
0.75 1.50781 -0.798861 0 0 1
0.75 1.51562 -0.791657 0 0 1
0.75 1.52344 -0.781546 0 0 1
0.757812 1.07812 -0.727241 0 0 1
0.757812 1.08594 -0.744729 0 0 1
0.757812 1.09375 -0.768962 0 0 1
0.757812 1.10156 -0.779542 0 0 1
0.757812 1.10938 -0.787188 0 0 1
0.757812 1.11719 -0.865122 0 0 1
0.757812 1.125 -0.890744 0 0 1
0.757812 1.13281 -0.902082 0 0 1
0.757812 1.14062 -0.911286 0 0 1
0.757812 1.14844 -0.918136 0 0 1
0.757812 1.15625 -0.924625 0 0 1
0.757812 1.16406 -0.934055 0 0 1
0.757812 1.17188 -0.944873 0 0 1
0.757812 1.17969 -0.9579 0 0 1
0.757812 1.1875 -0.965827 0 0 1
0.757812 1.19531 -0.972365 0 0 1
0.757812 1.20312 -0.98039 0 0 1
0.757812 1.21094 -0.982968 0 0 1
0.757812 1.21875 -0.98572 0 0 1
0.757812 1.22656 -0.987945 0 0 1
0.757812 1.23438 -0.988912 0 0 1
0.757812 1.24219 -0.988845 0 0 1
0.757812 1.25 -0.990497 0 0 1
0.757812 1.25781 -0.990654 0 0 1
0.757812 1.26562 -0.990734 0 0 1
0.757812 1.27344 -0.990706 0 0 1
0.757812 1.28125 -0.990544 0 0 1
0.757812 1.28906 -0.987118 0 0 1
0.757812 1.29688 -0.986874 0 0 1
0.757812 1.30469 -0.979274 0 0 1
0.757812 1.3125 -0.963374 0 0 1
0.757812 1.32031 -0.871155 0 0 1
0.757812 1.32812 -0.853597 0 0 1
0.757812 1.33594 -0.841756 0 0 1
0.757812 1.34375 -0.837319 0 0 1
0.757812 1.35156 -0.833551 0 0 1
0.757812 1.35938 -0.829451 0 0 1
0.757812 1.36719 -0.825227 0 0 1
0.757812 1.375 -0.820265 0 0 1
0.757812 1.38281 -0.809397 0 0 1
0.757812 1.39062 -0.803877 0 0 1
0.757812 1.39844 -0.805241 0 0 1
0.757812 1.40625 -0.808943 0 0 1
0.757812 1.41406 -0.81803 0 0 1
0.757812 1.42188 -0.824352 0 0 1
0.757812 1.42969 -0.825554 0 0 1
0.757812 1.4375 -0.827033 0 0 1
0.757812 1.44531 -0.827184 0 0 1
0.757812 1.45312 -0.826285 0 0 1
0.757812 1.46094 -0.825636 0 0 1
0.757812 1.46875 -0.825789 0 0 1
0.757812 1.47656 -0.822987 0 0 1
0.757812 1.48438 -0.816841 0 0 1
0.757812 1.49219 -0.807853 0 0 1
0.757812 1.5 -0.794998 0 0 1
0.757812 1.50781 -0.791002 0 0 1
0.757812 1.51562 -0.784505 0 0 1
0.757812 1.52344 -0.780395 0 0 1
0.765625 1.07031 -0.714703 0 0 1
0.765625 1.07812 -0.745369 0 0 1
0.765625 1.08594 -0.765691 0 0 1
0.765625 1.09375 -0.780532 0 0 1
0.765625 1.10156 -0.78776 0 0 1
0.765625 1.10938 -0.803906 0 0 1
0.765625 1.11719 -0.885705 0 0 1
0.765625 1.125 -0.89872 0 0 1
0.765625 1.13281 -0.912274 0 0 1
0.765625 1.14062 -0.919313 0 0 1
0.765625 1.14844 -0.924737 0 0 1
0.765625 1.15625 -0.933151 0 0 1
0.765625 1.16406 -0.940302 0 0 1
0.765625 1.17188 -0.954141 0 0 1
0.765625 1.17969 -0.966134 0 0 1
0.765625 1.1875 -0.975657 0 0 1
0.765625 1.19531 -0.984739 0 0 1
0.765625 1.20312 -0.989066 0 0 1
0.765625 1.21094 -0.993007 0 0 1
0.765625 1.21875 -0.995345 0 0 1
0.765625 1.22656 -0.995865 0 0 1
0.765625 1.23438 -0.996031 0 0 1
0.765625 1.24219 -0.993439 0 0 1
0.765625 1.25 -0.996059 0 0 1
0.765625 1.25781 -0.996074 0 0 1
0.765625 1.26562 -0.998731 0 0 1
0.765625 1.27344 -0.998825 0 0 1
0.765625 1.28125 -0.995809 0 0 1
0.765625 1.28906 -0.995376 0 0 1
0.765625 1.29688 -0.992049 0 0 1
0.765625 1.30469 -0.986841 0 0 1
0.765625 1.3125 -0.980441 0 0 1
0.765625 1.32031 -0.956413 0 0 1
0.765625 1.32812 -0.846022 0 0 1
0.765625 1.33594 -0.836471 0 0 1
0.765625 1.34375 -0.83008 0 0 1
0.765625 1.35156 -0.824959 0 0 1
0.765625 1.35938 -0.818482 0 0 1
0.765625 1.36719 -0.809252 0 0 1
0.765625 1.375 -0.798645 0 0 1
0.765625 1.38281 -0.793776 0 0 1
0.765625 1.39062 -0.79187 0 0 1
0.765625 1.39844 -0.790406 0 0 1
0.765625 1.40625 -0.797391 0 0 1
0.765625 1.41406 -0.809378 0 0 1
0.765625 1.42188 -0.816326 0 0 1
0.765625 1.42969 -0.819292 0 0 1
0.765625 1.4375 -0.820156 0 0 1
0.765625 1.44531 -0.821158 0 0 1
0.765625 1.45312 -0.819459 0 0 1
0.765625 1.46094 -0.820033 0 0 1
0.765625 1.46875 -0.818871 0 0 1
0.765625 1.47656 -0.814977 0 0 1
0.765625 1.48438 -0.805681 0 0 1
0.765625 1.49219 -0.789028 0 0 1
0.765625 1.50781 -0.78571 0 0 1
0.765625 1.51562 -0.781568 0 0 1
0.765625 1.52344 -0.773736 0 0 1
0.773438 1.0625 -0.698009 0 0 1
0.773438 1.07031 -0.73901 0 0 1
0.773438 1.07812 -0.761474 0 0 1
0.773438 1.08594 -0.780813 0 0 1
0.773438 1.09375 -0.789726 0 0 1
0.773438 1.10156 -0.798921 0 0 1
0.773438 1.10938 -0.88199 0 0 1
0.773438 1.11719 -0.898605 0 0 1
0.773438 1.125 -0.907417 0 0 1
0.773438 1.13281 -0.91913 0 0 1
0.773438 1.14062 -0.925435 0 0 1
0.773438 1.14844 -0.933628 0 0 1
0.773438 1.15625 -0.937459 0 0 1
0.773438 1.16406 -0.949067 0 0 1
0.773438 1.17188 -0.960966 0 0 1
0.773438 1.17969 -0.975223 0 0 1
0.773438 1.1875 -0.986578 0 0 1
0.773438 1.19531 -0.990444 0 0 1
0.773438 1.20312 -0.998021 0 0 1
0.773438 1.21094 -1.00056 0 0 1
0.773438 1.21875 -1.00467 0 0 1
0.773438 1.22656 -1.00625 0 0 1
0.773438 1.23438 -1.00194 0 0 1
0.773438 1.24219 -1.00638 0 0 1
0.773438 1.25 -1.00738 0 0 1
0.773438 1.25781 -1.00748 0 0 1
0.773438 1.26562 -1.00399 0 0 1
0.773438 1.27344 -1.00367 0 0 1
0.773438 1.28125 -1.00303 0 0 1
0.773438 1.28906 -1.00137 0 0 1
0.773438 1.29688 -0.999109 0 0 1
0.773438 1.30469 -0.990045 0 0 1
0.773438 1.3125 -0.984657 0 0 1
0.773438 1.32031 -0.948385 0 0 1
0.773438 1.32812 -0.838825 0 0 1
0.773438 1.33594 -0.824569 0 0 1
0.773438 1.34375 -0.812855 0 0 1
0.773438 1.35156 -0.806159 0 0 1
0.773438 1.35938 -0.78652 0 0 1
0.773438 1.41406 -0.800412 0 0 1
0.773438 1.42188 -0.809102 0 0 1
0.773438 1.42969 -0.811896 0 0 1
0.773438 1.4375 -0.813794 0 0 1
0.773438 1.44531 -0.813207 0 0 1
0.773438 1.45312 -0.813779 0 0 1
0.773438 1.46094 -0.812331 0 0 1
0.773438 1.46875 -0.809417 0 0 1
0.773438 1.47656 -0.79847 0 0 1
0.773438 1.48438 -0.793774 0 0 1
0.78125 1.0625 -0.729382 0 0 1
0.78125 1.07031 -0.761095 0 0 1
0.78125 1.07812 -0.772743 0 0 1
0.78125 1.08594 -0.788129 0 0 1
0.78125 1.09375 -0.798465 0 0 1
0.78125 1.10156 -0.87706 0 0 1
0.78125 1.10938 -0.88848 0 0 1
0.78125 1.11719 -0.907408 0 0 1
0.78125 1.125 -0.912748 0 0 1
0.78125 1.13281 -0.924186 0 0 1
0.78125 1.14062 -0.931818 0 0 1
0.78125 1.14844 -0.937331 0 0 1
0.78125 1.15625 -0.945545 0 0 1
0.78125 1.16406 -0.955815 0 0 1
0.78125 1.17188 -0.96527 0 0 1
0.78125 1.17969 -0.986787 0 0 1
0.78125 1.1875 -0.995734 0 0 1
0.78125 1.19531 -1.00137 0 0 1
0.78125 1.20312 -1.00376 0 0 1
0.78125 1.21094 -1.00737 0 0 1
0.78125 1.21875 -1.01053 0 0 1
0.78125 1.22656 -1.01054 0 0 1
0.78125 1.23438 -1.01272 0 0 1
0.78125 1.24219 -1.0124 0 0 1
0.78125 1.25 -1.01222 0 0 1
0.78125 1.25781 -1.01387 0 0 1
0.78125 1.26562 -1.01252 0 0 1
0.78125 1.27344 -1.00902 0 0 1
0.78125 1.28125 -1.00775 0 0 1
0.78125 1.28906 -0.683495 0 0 1
0.78125 1.29688 -0.699183 0 0 1
0.78125 1.30469 -0.996988 0 0 1
0.78125 1.3125 -0.979362 0 0 1
0.78125 1.32031 -0.974964 0 0 1
0.78125 1.32812 -0.828441 0 0 1
0.78125 1.33594 -0.804309 0 0 1
0.78125 1.41406 -0.779859 0 0 1
0.78125 1.42188 -0.798349 0 0 1
0.78125 1.42969 -0.804446 0 0 1
0.78125 1.4375 -0.805341 0 0 1
0.78125 1.44531 -0.804068 0 0 1
0.78125 1.45312 -0.802363 0 0 1
0.78125 1.46094 -0.795581 0 0 1
0.78125 1.46875 -0.790255 0 0 1
0.78125 1.47656 -0.778691 0 0 1
0.789062 1.05469 -0.709512 0 0 1
0.789062 1.0625 -0.75453 0 0 1
0.789062 1.07031 -0.773142 0 0 1
0.789062 1.07812 -0.783499 0 0 1
0.789062 1.08594 -0.794628 0 0 1
0.789062 1.09375 -0.803799 0 0 1
0.789062 1.10156 -0.88644 0 0 1
0.789062 1.10938 -0.901048 0 0 1
0.789062 1.11719 -0.913949 0 0 1
0.789062 1.125 -0.919675 0 0 1
0.789062 1.13281 -0.92882 0 0 1
0.789062 1.14062 -0.933004 0 0 1
0.789062 1.14844 -0.943185 0 0 1
0.789062 1.15625 -0.948139 0 0 1
0.789062 1.16406 -0.957821 0 0 1
0.789062 1.17188 -0.967925 0 0 1
0.789062 1.17969 -0.994463 0 0 1
0.789062 1.1875 -1.00192 0 0 1
0.789062 1.19531 -1.00796 0 0 1
0.789062 1.20312 -1.01167 0 0 1
0.789062 1.21094 -1.01503 0 0 1
0.789062 1.21875 -1.01678 0 0 1
0.789062 1.22656 -1.01865 0 0 1
0.789062 1.23438 -1.01489 0 0 1
0.789062 1.24219 -1.0188 0 0 1
0.789062 1.25 -1.01988 0 0 1
0.789062 1.25781 -1.01634 0 0 1
0.789062 1.26562 -1.01722 0 0 1
0.789062 1.27344 -1.01561 0 0 1
0.789062 1.28125 -1.01041 0 0 1
0.789062 1.28906 -1.00839 0 0 1
0.789062 1.29688 -1.00485 0 0 1
0.789062 1.30469 -0.999442 0 0 1
0.789062 1.3125 -0.993359 0 0 1
0.789062 1.32031 -0.978975 0 0 1
0.789062 1.32812 -0.804775 0 0 1
0.789062 1.42188 -0.775825 0 0 1
0.789062 1.42969 -0.795013 0 0 1
0.789062 1.4375 -0.794953 0 0 1
0.789062 1.44531 -0.790971 0 0 1
0.789062 1.45312 -0.789556 0 0 1
0.796875 1.05469 -0.75106 0 0 1
0.796875 1.0625 -0.768049 0 0 1
0.796875 1.07031 -0.781613 0 0 1
0.796875 1.07812 -0.791649 0 0 1
0.796875 1.08594 -0.799708 0 0 1
0.796875 1.09375 -0.877134 0 0 1
0.796875 1.10156 -0.893599 0 0 1
0.796875 1.10938 -0.908781 0 0 1
0.796875 1.11719 -0.917549 0 0 1
0.796875 1.125 -0.923998 0 0 1
0.796875 1.13281 -0.930385 0 0 1
0.796875 1.14062 -0.939241 0 0 1
0.796875 1.14844 -0.946589 0 0 1
0.796875 1.15625 -0.95169 0 0 1
0.796875 1.16406 -0.956717 0 0 1
0.796875 1.17188 -0.989586 0 0 1
0.796875 1.17969 -1.00411 0 0 1
0.796875 1.1875 -1.01149 0 0 1
0.796875 1.19531 -1.01513 0 0 1
0.796875 1.20312 -1.01913 0 0 1
0.796875 1.21094 -1.01982 0 0 1
0.796875 1.21875 -1.02184 0 0 1
0.796875 1.22656 -1.02194 0 0 1
0.796875 1.23438 -0.606948 0 0 1
0.796875 1.24219 -1.02271 0 0 1
0.796875 1.25 -1.02339 0 0 1
0.796875 1.25781 -1.02186 0 0 1
0.796875 1.26562 -1.01971 0 0 1
0.796875 1.27344 -1.01716 0 0 1
0.796875 1.28125 -1.01328 0 0 1
0.796875 1.28906 -1.00957 0 0 1
0.796875 1.29688 -1.0061 0 0 1
0.796875 1.30469 -1.00207 0 0 1
0.796875 1.3125 -0.991267 0 0 1
0.796875 1.32031 -0.978421 0 0 1
0.796875 1.32812 -0.803604 0 0 1
0.796875 1.4375 -0.782595 0 0 1
0.796875 1.44531 -0.782519 0 0 1
0.804688 1.04688 -0.744132 0 0 1
0.804688 1.05469 -0.767583 0 0 1
0.804688 1.0625 -0.778111 0 0 1
0.804688 1.07031 -0.786935 0 0 1
0.804688 1.07812 -0.797909 0 0 1
0.804688 1.08594 -0.843785 0 0 1
0.804688 1.09375 -0.888473 0 0 1
0.804688 1.10156 -0.903875 0 0 1
0.804688 1.10938 -0.914021 0 0 1
0.804688 1.11719 -0.921104 0 0 1
0.804688 1.125 -0.928738 0 0 1
0.804688 1.13281 -0.936264 0 0 1
0.804688 1.14062 -0.942471 0 0 1
0.804688 1.14844 -0.949149 0 0 1
0.804688 1.15625 -0.954175 0 0 1
0.804688 1.16406 -0.990834 0 0 1
0.804688 1.17188 -1.00242 0 0 1
0.804688 1.17969 -1.01306 0 0 1
0.804688 1.1875 -1.0172 0 0 1
0.804688 1.19531 -1.02076 0 0 1
0.804688 1.20312 -1.0236 0 0 1
0.804688 1.21094 -1.02432 0 0 1
0.804688 1.21875 -1.02631 0 0 1
0.804688 1.22656 -1.02678 0 0 1
0.804688 1.23438 -1.02634 0 0 1
0.804688 1.24219 -1.02659 0 0 1
0.804688 1.25 -1.02569 0 0 1
0.804688 1.25781 -1.02362 0 0 1
0.804688 1.26562 -1.02257 0 0 1
0.804688 1.27344 -1.01939 0 0 1
0.804688 1.28125 -1.01565 0 0 1
0.804688 1.28906 -1.00928 0 0 1
0.804688 1.29688 -1.00408 0 0 1
0.804688 1.30469 -0.999142 0 0 1
0.804688 1.3125 -0.991895 0 0 1
0.804688 1.32031 -0.973599 0 0 1
0.8125 1.03906 -0.473966 0 0 1
0.8125 1.04688 -0.761033 0 0 1
0.8125 1.05469 -0.774495 0 0 1
0.8125 1.0625 -0.784669 0 0 1
0.8125 1.07031 -0.793688 0 0 1
0.8125 1.07812 -0.801547 0 0 1
0.8125 1.08594 -0.876227 0 0 1
0.8125 1.09375 -0.896811 0 0 1
0.8125 1.10156 -0.908439 0 0 1
0.8125 1.10938 -0.917977 0 0 1
0.8125 1.11719 -0.923913 0 0 1
0.8125 1.125 -0.931806 0 0 1
0.8125 1.13281 -0.936681 0 0 1
0.8125 1.14062 -0.944918 0 0 1
0.8125 1.14844 -0.9509 0 0 1
0.8125 1.15625 -0.982914 0 0 1
0.8125 1.16406 -1.00467 0 0 1
0.8125 1.17188 -1.01057 0 0 1
0.8125 1.17969 -1.01739 0 0 1
0.8125 1.1875 -1.01974 0 0 1
0.8125 1.19531 -1.026 0 0 1
0.8125 1.20312 -1.02645 0 0 1
0.8125 1.21094 -1.02965 0 0 1
0.8125 1.21875 -1.02858 0 0 1
0.8125 1.22656 -1.03014 0 0 1
0.8125 1.23438 -1.02923 0 0 1
0.8125 1.24219 -1.02879 0 0 1
0.8125 1.25 -1.02741 0 0 1
0.8125 1.25781 -1.02616 0 0 1
0.8125 1.26562 -1.02332 0 0 1
0.8125 1.27344 -1.01878 0 0 1
0.8125 1.28125 -1.01433 0 0 1
0.8125 1.28906 -1.01056 0 0 1
0.8125 1.29688 -1.00464 0 0 1
0.8125 1.30469 -0.997403 0 0 1
0.8125 1.3125 -0.98858 0 0 1
0.8125 1.32031 -0.972016 0 0 1
0.820312 1.03125 -0.469429 0 0 1
0.820312 1.03906 -0.752014 0 0 1
0.820312 1.04688 -0.769534 0 0 1
0.820312 1.05469 -0.781006 0 0 1
0.820312 1.0625 -0.789791 0 0 1
0.820312 1.07031 -0.798281 0 0 1
0.820312 1.07812 -0.849684 0 0 1
0.820312 1.08594 -0.889257 0 0 1
0.820312 1.09375 -0.902234 0 0 1
0.820312 1.10156 -0.911811 0 0 1
0.820312 1.10938 -0.92093 0 0 1
0.820312 1.11719 -0.926628 0 0 1
0.820312 1.125 -0.933728 0 0 1
0.820312 1.13281 -0.940323 0 0 1
0.820312 1.14062 -0.945662 0 0 1
0.820312 1.14844 -0.949701 0 0 1
0.820312 1.15625 -1.00299 0 0 1
0.820312 1.16406 -1.01361 0 0 1
0.820312 1.17188 -1.01931 0 0 1
0.820312 1.17969 -1.02276 0 0 1
0.820312 1.1875 -1.02748 0 0 1
0.820312 1.19531 -1.03022 0 0 1
0.820312 1.20312 -1.03216 0 0 1
0.820312 1.21094 -1.03071 0 0 1
0.820312 1.21875 -1.03192 0 0 1
0.820312 1.22656 -1.03275 0 0 1
0.820312 1.23438 -1.03116 0 0 1
0.820312 1.24219 -1.03052 0 0 1
0.820312 1.25 -1.02794 0 0 1
0.820312 1.25781 -1.02574 0 0 1
0.820312 1.26562 -1.02312 0 0 1
0.820312 1.27344 -1.01886 0 0 1
0.820312 1.28125 -1.0139 0 0 1
0.820312 1.28906 -1.00954 0 0 1
0.820312 1.29688 -1.00369 0 0 1
0.820312 1.30469 -0.993957 0 0 1
0.820312 1.3125 -0.981502 0 0 1
0.820312 1.32031 -0.952145 0 0 1
0.828125 1.02344 -0.462174 0 0 1
0.828125 1.03125 -0.73666 0 0 1
0.828125 1.03906 -0.762846 0 0 1
0.828125 1.04688 -0.776325 0 0 1
0.828125 1.05469 -0.785621 0 0 1
0.828125 1.0625 -0.792244 0 0 1
0.828125 1.07031 -0.803005 0 0 1
0.828125 1.07812 -0.868516 0 0 1
0.828125 1.08594 -0.897676 0 0 1
0.828125 1.09375 -0.906774 0 0 1
0.828125 1.10156 -0.914954 0 0 1
0.828125 1.10938 -0.922154 0 0 1
0.828125 1.11719 -0.929264 0 0 1
0.828125 1.125 -0.935394 0 0 1
0.828125 1.13281 -0.941726 0 0 1
0.828125 1.14062 -0.946779 0 0 1
0.828125 1.14844 -1.0065 0 0 1
0.828125 1.15625 -1.01478 0 0 1
0.828125 1.16406 -1.01942 0 0 1
0.828125 1.17188 -1.02669 0 0 1
0.828125 1.17969 -1.02913 0 0 1
0.828125 1.1875 -1.03264 0 0 1
0.828125 1.19531 -1.03328 0 0 1
0.828125 1.20312 -1.03465 0 0 1
0.828125 1.21094 -1.03554 0 0 1
0.828125 1.21875 -1.03522 0 0 1
0.828125 1.22656 -1.03367 0 0 1
0.828125 1.23438 -1.03352 0 0 1
0.828125 1.24219 -1.02975 0 0 1
0.828125 1.25 -1.02773 0 0 1
0.828125 1.25781 -1.02436 0 0 1
0.828125 1.26562 -1.01949 0 0 1
0.828125 1.27344 -1.01836 0 0 1
0.828125 1.28125 -1.01104 0 0 1
0.828125 1.28906 -1.00371 0 0 1
0.828125 1.29688 -0.994765 0 0 1
0.828125 1.30469 -0.985314 0 0 1
0.828125 1.3125 -0.972256 0 0 1
0.835938 1.01562 -0.460111 0 0 1
0.835938 1.02344 -0.475292 0 0 1
0.835938 1.03125 -0.757859 0 0 1
0.835938 1.03906 -0.771139 0 0 1
0.835938 1.04688 -0.782285 0 0 1
0.835938 1.05469 -0.790545 0 0 1
0.835938 1.0625 -0.798384 0 0 1
0.835938 1.07031 -0.855816 0 0 1
0.835938 1.07812 -0.884175 0 0 1
0.835938 1.08594 -0.902656 0 0 1
0.835938 1.09375 -0.910562 0 0 1
0.835938 1.10156 -0.919066 0 0 1
0.835938 1.10938 -0.926458 0 0 1
0.835938 1.11719 -0.931652 0 0 1
0.835938 1.125 -0.938252 0 0 1
0.835938 1.13281 -0.942701 0 0 1
0.835938 1.14062 -1.00902 0 0 1
0.835938 1.14844 -1.02185 0 0 1
0.835938 1.15625 -1.02552 0 0 1
0.835938 1.16406 -1.02929 0 0 1
0.835938 1.17188 -1.02971 0 0 1
0.835938 1.17969 -1.03479 0 0 1
0.835938 1.1875 -1.03484 0 0 1
0.835938 1.19531 -1.03634 0 0 1
0.835938 1.20312 -1.0377 0 0 1
0.835938 1.21094 -1.03717 0 0 1
0.835938 1.21875 -1.03658 0 0 1
0.835938 1.22656 -1.03587 0 0 1
0.835938 1.23438 -1.03384 0 0 1
0.835938 1.24219 -0.641824 0 0 1
0.835938 1.25 -1.02599 0 0 1
0.835938 1.25781 -1.02397 0 0 1
0.835938 1.26562 -1.02115 0 0 1
0.835938 1.27344 -1.01569 0 0 1
0.835938 1.28125 -1.00883 0 0 1
0.835938 1.28906 -1.00358 0 0 1
0.835938 1.29688 -0.989271 0 0 1
0.835938 1.30469 -0.975844 0 0 1
0.84375 1 -0.438218 0 0 1
0.84375 1.00781 -0.458052 0 0 1
0.84375 1.01562 -0.469228 0 0 1
0.84375 1.02344 -0.741122 0 0 1
0.84375 1.03125 -0.764237 0 0 1
0.84375 1.03906 -0.775312 0 0 1
0.84375 1.04688 -0.787117 0 0 1
0.84375 1.05469 -0.793498 0 0 1
0.84375 1.0625 -0.843019 0 0 1
0.84375 1.07031 -0.869894 0 0 1
0.84375 1.07812 -0.891166 0 0 1
0.84375 1.08594 -0.90589 0 0 1
0.84375 1.09375 -0.913833 0 0 1
0.84375 1.10156 -0.921592 0 0 1
0.84375 1.10938 -0.927611 0 0 1
0.84375 1.11719 -0.932346 0 0 1
0.84375 1.125 -0.93798 0 0 1
0.84375 1.13281 -1.01439 0 0 1
0.84375 1.14062 -1.02375 0 0 1
0.84375 1.14844 -1.03181 0 0 1
0.84375 1.15625 -1.03379 0 0 1
0.84375 1.16406 -1.03248 0 0 1
0.84375 1.17188 -1.03801 0 0 1
0.84375 1.17969 -1.03814 0 0 1
0.84375 1.1875 -1.03835 0 0 1
0.84375 1.19531 -1.03843 0 0 1
0.84375 1.20312 -1.03961 0 0 1
0.84375 1.21094 -1.03768 0 0 1
0.84375 1.21875 -1.03659 0 0 1
0.84375 1.22656 -1.03437 0 0 1
0.84375 1.23438 -1.03082 0 0 1
0.84375 1.24219 -1.02923 0 0 1
0.84375 1.25 -1.02655 0 0 1
0.84375 1.25781 -1.01956 0 0 1
0.84375 1.26562 -1.01659 0 0 1
0.84375 1.27344 -1.01243 0 0 1
0.84375 1.28125 -1.003 0 0 1
0.84375 1.28906 -0.993856 0 0 1
0.84375 1.29688 -0.98215 0 0 1
0.851562 1 -0.447576 0 0 1
0.851562 1.00781 -0.463196 0 0 1
0.851562 1.01562 -0.471258 0 0 1
0.851562 1.02344 -0.753299 0 0 1
0.851562 1.03125 -0.77012 0 0 1
0.851562 1.03906 -0.783583 0 0 1
0.851562 1.04688 -0.791219 0 0 1
0.851562 1.05469 -0.802046 0 0 1
0.851562 1.0625 -0.861232 0 0 1
0.851562 1.07031 -0.87988 0 0 1
0.851562 1.07812 -0.898844 0 0 1
0.851562 1.08594 -0.909043 0 0 1
0.851562 1.09375 -0.916353 0 0 1
0.851562 1.10156 -0.922779 0 0 1
0.851562 1.10938 -0.92852 0 0 1
0.851562 1.11719 -0.934108 0 0 1
0.851562 1.125 -1.01491 0 0 1
0.851562 1.13281 -1.0282 0 0 1
0.851562 1.14062 -1.03434 0 0 1
0.851562 1.14844 -1.03675 0 0 1
0.851562 1.15625 -1.04025 0 0 1
0.851562 1.16406 -1.03925 0 0 1
0.851562 1.17188 -1.04093 0 0 1
0.851562 1.17969 -1.03954 0 0 1
0.851562 1.1875 -1.04041 0 0 1
0.851562 1.19531 -1.04073 0 0 1
0.851562 1.20312 -1.03946 0 0 1
0.851562 1.21094 -1.03868 0 0 1
0.851562 1.21875 -1.03651 0 0 1
0.851562 1.22656 -1.03343 0 0 1
0.851562 1.23438 -1.03121 0 0 1
0.851562 1.24219 -1.02666 0 0 1
0.851562 1.25 -1.02403 0 0 1
0.851562 1.25781 -1.01895 0 0 1
0.851562 1.26562 -1.01058 0 0 1
0.851562 1.27344 -1.004 0 0 1
0.851562 1.28125 -0.997974 0 0 1
0.851562 1.28906 -0.985018 0 0 1
0.851562 1.29688 -0.904502 0 0 1
0.859375 0.992188 -0.431469 0 0 1
0.859375 1 -0.452643 0 0 1
0.859375 1.00781 -0.464565 0 0 1
0.859375 1.01562 -0.749041 0 0 1
0.859375 1.02344 -0.764309 0 0 1
0.859375 1.03125 -0.777343 0 0 1
0.859375 1.03906 -0.785543 0 0 1
0.859375 1.04688 -0.794251 0 0 1
0.859375 1.05469 -0.843024 0 0 1
0.859375 1.0625 -0.86781 0 0 1
0.859375 1.07031 -0.886994 0 0 1
0.859375 1.07812 -0.902361 0 0 1
0.859375 1.08594 -0.91102 0 0 1
0.859375 1.09375 -0.918604 0 0 1
0.859375 1.10156 -0.92437 0 0 1
0.859375 1.10938 -0.929416 0 0 1
0.859375 1.11719 -1.01104 0 0 1
0.859375 1.125 -1.02745 0 0 1
0.859375 1.13281 -1.03697 0 0 1
0.859375 1.14062 -1.04079 0 0 1
0.859375 1.14844 -1.04311 0 0 1
0.859375 1.15625 -1.04471 0 0 1
0.859375 1.16406 -1.0443 0 0 1
0.859375 1.17188 -1.04387 0 0 1
0.859375 1.17969 -1.04219 0 0 1
0.859375 1.1875 -1.04269 0 0 1
0.859375 1.19531 -1.04108 0 0 1
0.859375 1.20312 -1.0393 0 0 1
0.859375 1.21094 -1.03694 0 0 1
0.859375 1.21875 -1.03598 0 0 1
0.859375 1.22656 -1.03275 0 0 1
0.859375 1.23438 -1.02961 0 0 1
0.859375 1.24219 -1.02543 0 0 1
0.859375 1.25 -1.01882 0 0 1
0.859375 1.25781 -1.01142 0 0 1
0.859375 1.26562 -1.00651 0 0 1
0.859375 1.27344 -0.992336 0 0 1
0.859375 1.28125 -0.985495 0 0 1
0.859375 1.28906 -0.928996 0 0 1
0.859375 1.29688 -0.883382 0 0 1
0.867188 0.984375 -0.416985 0 0 1
0.867188 0.992188 -0.437815 0 0 1
0.867188 1 -0.453756 0 0 1
0.867188 1.00781 -0.721496 0 0 1
0.867188 1.01562 -0.759082 0 0 1
0.867188 1.02344 -0.772578 0 0 1
0.867188 1.03125 -0.783253 0 0 1
0.867188 1.03906 -0.790829 0 0 1
0.867188 1.04688 -0.79876 0 0 1
0.867188 1.05469 -0.856516 0 0 1
0.867188 1.0625 -0.875248 0 0 1
0.867188 1.07031 -0.89191 0 0 1
0.867188 1.07812 -0.904272 0 0 1
0.867188 1.08594 -0.912778 0 0 1
0.867188 1.09375 -0.919297 0 0 1
0.867188 1.10156 -0.924062 0 0 1
0.867188 1.10938 -0.929354 0 0 1
0.867188 1.11719 -1.03206 0 0 1
0.867188 1.125 -1.04165 0 0 1
0.867188 1.13281 -1.0437 0 0 1
0.867188 1.14062 -1.04707 0 0 1
0.867188 1.14844 -1.04643 0 0 1
0.867188 1.15625 -1.04927 0 0 1
0.867188 1.16406 -1.04733 0 0 1
0.867188 1.17188 -1.04709 0 0 1
0.867188 1.17969 -0.941795 0 0 1
0.867188 1.1875 -1.04303 0 0 1
0.867188 1.19531 -1.04025 0 0 1
0.867188 1.20312 -1.0376 0 0 1
0.867188 1.21094 -1.03685 0 0 1
0.867188 1.21875 -1.03232 0 0 1
0.867188 1.22656 -1.03099 0 0 1
0.867188 1.23438 -1.02341 0 0 1
0.867188 1.24219 -1.01878 0 0 1
0.867188 1.25 -1.01408 0 0 1
0.867188 1.25781 -1.00601 0 0 1
0.867188 1.26562 -0.998153 0 0 1
0.867188 1.27344 -0.978301 0 0 1
0.867188 1.28125 -0.943409 0 0 1
0.867188 1.28906 -0.908661 0 0 1
0.875 0.984375 -0.420969 0 0 1
0.875 0.992188 -0.440648 0 0 1
0.875 1 -0.451448 0 0 1
0.875 1.00781 -0.745982 0 0 1
0.875 1.01562 -0.768335 0 0 1
0.875 1.02344 -0.777415 0 0 1
0.875 1.03125 -0.784813 0 0 1
0.875 1.03906 -0.79432 0 0 1
0.875 1.04688 -0.833589 0 0 1
0.875 1.05469 -0.865139 0 0 1
0.875 1.0625 -0.883608 0 0 1
0.875 1.07031 -0.893259 0 0 1
0.875 1.07812 -0.905625 0 0 1
0.875 1.08594 -0.913395 0 0 1
0.875 1.09375 -0.918982 0 0 1
0.875 1.10156 -0.923065 0 0 1
0.875 1.10938 -1.03692 0 0 1
0.875 1.11719 -1.04707 0 0 1
0.875 1.125 -1.04915 0 0 1
0.875 1.13281 -1.05129 0 0 1
0.875 1.14062 -1.05286 0 0 1
0.875 1.14844 -1.05236 0 0 1
0.875 1.15625 -1.0519 0 0 1
0.875 1.16406 -1.05067 0 0 1
0.875 1.17188 -0.939301 0 0 1
0.875 1.17969 -1.0459 0 0 1
0.875 1.1875 -1.04406 0 0 1
0.875 1.19531 -1.04061 0 0 1
0.875 1.20312 -1.03647 0 0 1
0.875 1.21094 -1.0344 0 0 1
0.875 1.21875 -1.0292 0 0 1
0.875 1.22656 -1.0247 0 0 1
0.875 1.23438 -1.01933 0 0 1
0.875 1.24219 -1.01066 0 0 1
0.875 1.25 -1.00061 0 0 1
0.875 1.25781 -0.990791 0 0 1
0.875 1.26562 -0.949387 0 0 1
0.875 1.27344 -0.938028 0 0 1
0.875 1.28125 -0.921582 0 0 1
0.875 1.28906 -0.895665 0 0 1
0.882812 0.976562 -0.409053 0 0 1
0.882812 0.984375 -0.427016 0 0 1
0.882812 0.992188 -0.442371 0 0 1
0.882812 1 -0.739247 0 0 1
0.882812 1.00781 -0.757033 0 0 1
0.882812 1.01562 -0.770279 0 0 1
0.882812 1.02344 -0.777847 0 0 1
0.882812 1.03125 -0.788877 0 0 1
0.882812 1.03906 -0.806862 0 0 1
0.882812 1.04688 -0.85429 0 0 1
0.882812 1.05469 -0.873306 0 0 1
0.882812 1.0625 -0.886535 0 0 1
0.882812 1.07031 -0.897025 0 0 1
0.882812 1.07812 -0.90434 0 0 1
0.882812 1.08594 -0.913372 0 0 1
0.882812 1.09375 -0.917739 0 0 1
0.882812 1.10156 -1.04706 0 0 1
0.882812 1.10938 -1.04943 0 0 1
0.882812 1.11719 -1.05514 0 0 1
0.882812 1.125 -1.05579 0 0 1
0.882812 1.13281 -1.0559 0 0 1
0.882812 1.14062 -1.05606 0 0 1
0.882812 1.14844 -1.05386 0 0 1
0.882812 1.15625 -1.05279 0 0 1
0.882812 1.16406 -1.05287 0 0 1
0.882812 1.17188 -1.04763 0 0 1
0.882812 1.17969 -1.04525 0 0 1
0.882812 1.1875 -1.04168 0 0 1
0.882812 1.19531 -1.03815 0 0 1
0.882812 1.20312 -1.03556 0 0 1
0.882812 1.21094 -1.03168 0 0 1
0.882812 1.21875 -1.0268 0 0 1
0.882812 1.22656 -1.02146 0 0 1
0.882812 1.23438 -1.01154 0 0 1
0.882812 1.24219 -1.0002 0 0 1
0.882812 1.25 -0.940862 0 0 1
0.882812 1.25781 -0.941077 0 0 1
0.882812 1.26562 -0.937708 0 0 1
0.882812 1.27344 -0.928144 0 0 1
0.882812 1.28125 -0.909752 0 0 1
0.882812 1.28906 -0.879763 0 0 1
0.890625 0.96875 -0.380073 0 0 1
0.890625 0.976562 -0.41268 0 0 1
0.890625 0.984375 -0.430752 0 0 1
0.890625 0.992188 -0.737501 0 0 1
0.890625 1 -0.755902 0 0 1
0.890625 1.00781 -0.764324 0 0 1
0.890625 1.01562 -0.773591 0 0 1
0.890625 1.02344 -0.779822 0 0 1
0.890625 1.03125 -0.791691 0 0 1
0.890625 1.03906 -0.833744 0 0 1
0.890625 1.04688 -0.859343 0 0 1
0.890625 1.05469 -0.876891 0 0 1
0.890625 1.0625 -0.889868 0 0 1
0.890625 1.07031 -0.900073 0 0 1
0.890625 1.07812 -0.907445 0 0 1
0.890625 1.08594 -0.913674 0 0 1
0.890625 1.09375 -1.04978 0 0 1
0.890625 1.10156 -1.05568 0 0 1
0.890625 1.10938 -1.05774 0 0 1
0.890625 1.11719 -1.06021 0 0 1
0.890625 1.125 -1.06174 0 0 1
0.890625 1.13281 -1.06145 0 0 1
0.890625 1.14062 -1.05984 0 0 1
0.890625 1.14844 -1.05773 0 0 1
0.890625 1.15625 -1.05628 0 0 1
0.890625 1.16406 -1.05278 0 0 1
0.890625 1.17188 -1.04959 0 0 1
0.890625 1.17969 -1.0451 0 0 1
0.890625 1.1875 -1.04008 0 0 1
0.890625 1.19531 -1.03644 0 0 1
0.890625 1.20312 -1.0311 0 0 1
0.890625 1.21094 -1.02651 0 0 1
0.890625 1.21875 -1.01825 0 0 1
0.890625 1.22656 -1.0123 0 0 1
0.890625 1.23438 -0.998579 0 0 1
0.890625 1.24219 -0.931123 0 0 1
0.890625 1.25 -0.931636 0 0 1
0.890625 1.25781 -0.931638 0 0 1
0.890625 1.26562 -0.92581 0 0 1
0.890625 1.27344 -0.914156 0 0 1
0.890625 1.28125 -0.895336 0 0 1
0.898438 0.96875 -0.39798 0 0 1
0.898438 0.976562 -0.708416 0 0 1
0.898438 0.984375 -0.7315 0 0 1
0.898438 0.992188 -0.752969 0 0 1
0.898438 1 -0.763512 0 0 1
0.898438 1.00781 -0.772812 0 0 1
0.898438 1.01562 -0.777776 0 0 1
0.898438 1.02344 -0.781958 0 0 1
0.898438 1.03125 -0.808997 0 0 1
0.898438 1.03906 -0.847802 0 0 1
0.898438 1.04688 -0.8664 0 0 1
0.898438 1.05469 -0.881467 0 0 1
0.898438 1.0625 -0.890855 0 0 1
0.898438 1.07031 -0.900671 0 0 1
0.898438 1.07812 -0.906736 0 0 1
0.898438 1.08594 -1.05392 0 0 1
0.898438 1.09375 -1.06027 0 0 1
0.898438 1.10156 -1.0626 0 0 1
0.898438 1.10938 -1.06448 0 0 1
0.898438 1.11719 -1.06525 0 0 1
0.898438 1.125 -1.06499 0 0 1
0.898438 1.13281 -1.06453 0 0 1
0.898438 1.14062 -1.06271 0 0 1
0.898438 1.14844 -1.0606 0 0 1
0.898438 1.15625 -1.05762 0 0 1
0.898438 1.16406 -1.05292 0 0 1
0.898438 1.17188 -1.04815 0 0 1
0.898438 1.17969 -1.04386 0 0 1
0.898438 1.1875 -1.03924 0 0 1
0.898438 1.19531 -1.0325 0 0 1
0.898438 1.20312 -1.02883 0 0 1
0.898438 1.21094 -1.01881 0 0 1
0.898438 1.21875 -1.00927 0 0 1
0.898438 1.22656 -0.918699 0 0 1
0.898438 1.23438 -0.920786 0 0 1
0.898438 1.24219 -0.921831 0 0 1
0.898438 1.25 -0.921685 0 0 1
0.898438 1.25781 -0.920032 0 0 1
0.898438 1.26562 -0.91382 0 0 1
0.898438 1.27344 -0.903486 0 0 1
0.898438 1.28125 -0.878679 0 0 1
0.90625 0.960938 -0.38213 0 0 1
0.90625 0.96875 -0.720471 0 0 1
0.90625 0.976562 -0.729335 0 0 1
0.90625 0.984375 -0.75427 0 0 1
0.90625 0.992188 -0.762335 0 0 1
0.90625 1 -0.767722 0 0 1
0.90625 1.00781 -0.776074 0 0 1
0.90625 1.01562 -0.78278 0 0 1
0.90625 1.02344 -0.803923 0 0 1
0.90625 1.03125 -0.831029 0 0 1
0.90625 1.03906 -0.856041 0 0 1
0.90625 1.04688 -0.872164 0 0 1
0.90625 1.05469 -0.88441 0 0 1
0.90625 1.0625 -0.894786 0 0 1
0.90625 1.07031 -0.901677 0 0 1
0.90625 1.07812 -1.05825 0 0 1
0.90625 1.08594 -1.06264 0 0 1
0.90625 1.09375 -1.06848 0 0 1
0.90625 1.10156 -1.06949 0 0 1
0.90625 1.10938 -1.06978 0 0 1
0.90625 1.11719 -0.981577 0 0 1
0.90625 1.125 -1.07039 0 0 1
0.90625 1.13281 -1.06768 0 0 1
0.90625 1.14062 -1.06664 0 0 1
0.90625 1.14844 -1.06337 0 0 1
0.90625 1.15625 -1.05873 0 0 1
0.90625 1.16406 -1.05328 0 0 1
0.90625 1.17188 -1.0467 0 0 1
0.90625 1.17969 -1.04093 0 0 1
0.90625 1.1875 -1.03558 0 0 1
0.90625 1.19531 -1.02864 0 0 1
0.90625 1.20312 -1.01973 0 0 1
0.90625 1.21094 -1.01199 0 0 1
0.90625 1.21875 -0.910742 0 0 1
0.90625 1.22656 -0.911915 0 0 1
0.90625 1.23438 -0.913482 0 0 1
0.90625 1.24219 -0.912596 0 0 1
0.90625 1.25 -0.911567 0 0 1
0.90625 1.25781 -0.908219 0 0 1
0.90625 1.26562 -0.901231 0 0 1
0.90625 1.27344 -0.886711 0 0 1
0.90625 1.28125 -0.835854 0 0 1
0.914062 0.953125 -0.692428 0 0 1
0.914062 0.960938 -0.720094 0 0 1
0.914062 0.96875 -0.739182 0 0 1
0.914062 0.976562 -0.748466 0 0 1
0.914062 0.984375 -0.75981 0 0 1
0.914062 0.992188 -0.766441 0 0 1
0.914062 1 -0.769241 0 0 1
0.914062 1.00781 -0.779589 0 0 1
0.914062 1.01562 -0.786463 0 0 1
0.914062 1.02344 -0.825348 0 0 1
0.914062 1.03125 -0.841865 0 0 1
0.914062 1.03906 -0.85946 0 0 1
0.914062 1.04688 -0.873082 0 0 1
0.914062 1.05469 -0.886697 0 0 1
0.914062 1.0625 -0.895227 0 0 1
0.914062 1.07031 -1.06477 0 0 1
0.914062 1.07812 -1.06724 0 0 1
0.914062 1.08594 -1.07111 0 0 1
0.914062 1.09375 -1.07289 0 0 1
0.914062 1.10156 -1.07499 0 0 1
0.914062 1.10938 -1.0748 0 0 1
0.914062 1.11719 -1.07144 0 0 1
0.914062 1.125 -1.072 0 0 1
0.914062 1.13281 -1.07181 0 0 1
0.914062 1.14062 -1.06768 0 0 1
0.914062 1.14844 -1.06204 0 0 1
0.914062 1.15625 -1.059 0 0 1
0.914062 1.16406 -1.05349 0 0 1
0.914062 1.17188 -1.04854 0 0 1
0.914062 1.17969 -1.04187 0 0 1
0.914062 1.1875 -1.0316 0 0 1
0.914062 1.19531 -1.02572 0 0 1
0.914062 1.20312 -1.01069 0 0 1
0.914062 1.21094 -0.90351 0 0 1
0.914062 1.21875 -0.905159 0 0 1
0.914062 1.22656 -0.905377 0 0 1
0.914062 1.23438 -0.904537 0 0 1
0.914062 1.24219 -0.90514 0 0 1
0.914062 1.25 -0.903152 0 0 1
0.914062 1.25781 -0.898944 0 0 1
0.914062 1.26562 -0.886111 0 0 1
0.914062 1.27344 -0.873891 0 0 1
0.921875 0.945312 -0.711423 0 0 1
0.921875 0.953125 -0.715022 0 0 1
0.921875 0.960938 -0.741011 0 0 1
0.921875 0.96875 -0.753491 0 0 1
0.921875 0.976562 -0.761011 0 0 1
0.921875 0.984375 -0.768008 0 0 1
0.921875 0.992188 -0.773539 0 0 1
0.921875 1 -0.77937 0 0 1
0.921875 1.00781 -0.783378 0 0 1
0.921875 1.01562 -0.815446 0 0 1
0.921875 1.02344 -0.832756 0 0 1
0.921875 1.03125 -0.844875 0 0 1
0.921875 1.03906 -0.861532 0 0 1
0.921875 1.04688 -0.876379 0 0 1
0.921875 1.05469 -0.888168 0 0 1
0.921875 1.0625 -1.07056 0 0 1
0.921875 1.07031 -1.07442 0 0 1
0.921875 1.07812 -1.0732 0 0 1
0.921875 1.08594 -1.07879 0 0 1
0.921875 1.09375 -1.07941 0 0 1
0.921875 1.10156 -1.07947 0 0 1
0.921875 1.10938 -1.07778 0 0 1
0.921875 1.11719 -1.07884 0 0 1
0.921875 1.125 -1.07671 0 0 1
0.921875 1.13281 -1.07146 0 0 1
0.921875 1.14062 -1.07008 0 0 1
0.921875 1.14844 -1.06269 0 0 1
0.921875 1.15625 -1.05902 0 0 1
0.921875 1.16406 -1.05301 0 0 1
0.921875 1.17188 -1.04401 0 0 1
0.921875 1.17969 -1.03636 0 0 1
0.921875 1.1875 -1.03118 0 0 1
0.921875 1.19531 -1.0206 0 0 1
0.921875 1.20312 -0.901017 0 0 1
0.921875 1.21094 -0.899439 0 0 1
0.921875 1.21875 -0.897287 0 0 1
0.921875 1.22656 -0.898115 0 0 1
0.921875 1.23438 -0.897257 0 0 1
0.921875 1.24219 -0.8961 0 0 1
0.921875 1.25 -0.890957 0 0 1
0.921875 1.25781 -0.884775 0 0 1
0.921875 1.26562 -0.872215 0 0 1
0.921875 1.27344 -0.846673 0 0 1
0.929688 0.929688 -0.694911 0 0 1
0.929688 0.9375 -0.71725 0 0 1
0.929688 0.945312 -0.721336 0 0 1
0.929688 0.953125 -0.743403 0 0 1
0.929688 0.960938 -0.755298 0 0 1
0.929688 0.96875 -0.758793 0 0 1
0.929688 0.976562 -0.76899 0 0 1
0.929688 0.984375 -0.775067 0 0 1
0.929688 0.992188 -0.778555 0 0 1
0.929688 1 -0.79229 0 0 1
0.929688 1.00781 -0.809871 0 0 1
0.929688 1.01562 -0.826629 0 0 1
0.929688 1.02344 -0.838505 0 0 1
0.929688 1.03125 -0.853994 0 0 1
0.929688 1.03906 -0.868258 0 0 1
0.929688 1.04688 -0.875723 0 0 1
0.929688 1.05469 -1.07498 0 0 1
0.929688 1.0625 -1.07904 0 0 1
0.929688 1.07031 -1.08108 0 0 1
0.929688 1.07812 -1.08326 0 0 1
0.929688 1.08594 -1.08391 0 0 1
0.929688 1.09375 -1.08545 0 0 1
0.929688 1.10156 -1.08487 0 0 1
0.929688 1.10938 -1.08276 0 0 1
0.929688 1.11719 -1.08085 0 0 1
0.929688 1.125 -1.0765 0 0 1
0.929688 1.13281 -1.07481 0 0 1
0.929688 1.14062 -1.06656 0 0 1
0.929688 1.14844 -1.06477 0 0 1
0.929688 1.15625 -1.05824 0 0 1
0.929688 1.16406 -1.05153 0 0 1
0.929688 1.17188 -1.04468 0 0 1
0.929688 1.17969 -1.03263 0 0 1
0.929688 1.1875 -1.02063 0 0 1
0.929688 1.19531 -0.897716 0 0 1
0.929688 1.20312 -0.894574 0 0 1
0.929688 1.21094 -0.892848 0 0 1
0.929688 1.21875 -0.891822 0 0 1
0.929688 1.22656 -0.890768 0 0 1
0.929688 1.23438 -0.889336 0 0 1
0.929688 1.24219 -0.885816 0 0 1
0.929688 1.25 -0.87893 0 0 1
0.929688 1.25781 -0.872735 0 0 1
0.929688 1.26562 -0.855828 0 0 1
0.9375 0.914062 -0.694004 0 0 1
0.9375 0.921875 -0.707873 0 0 1
0.9375 0.929688 -0.722537 0 0 1
0.9375 0.9375 -0.727381 0 0 1
0.9375 0.945312 -0.747 0 0 1
0.9375 0.953125 -0.756695 0 0 1
0.9375 0.960938 -0.763892 0 0 1
0.9375 0.96875 -0.773394 0 0 1
0.9375 0.976562 -0.776499 0 0 1
0.9375 0.984375 -0.785039 0 0 1
0.9375 0.992188 -0.792802 0 0 1
0.9375 1 -0.807644 0 0 1
0.9375 1.00781 -0.826753 0 0 1
0.9375 1.01562 -0.833467 0 0 1
0.9375 1.02344 -0.848832 0 0 1
0.9375 1.03125 -0.853299 0 0 1
0.9375 1.03906 -0.862274 0 0 1
0.9375 1.04688 -1.07724 0 0 1
0.9375 1.05469 -1.08595 0 0 1
0.9375 1.0625 -1.08707 0 0 1
0.9375 1.07031 -1.09081 0 0 1
0.9375 1.07812 -1.08809 0 0 1
0.9375 1.08594 -1.09012 0 0 1
0.9375 1.09375 -1.08901 0 0 1
0.9375 1.10156 -1.0888 0 0 1
0.9375 1.10938 -1.08757 0 0 1
0.9375 1.11719 -1.08446 0 0 1
0.9375 1.125 -1.07874 0 0 1
0.9375 1.13281 -1.07555 0 0 1
0.9375 1.14062 -1.06924 0 0 1
0.9375 1.14844 -1.0638 0 0 1
0.9375 1.15625 -1.05585 0 0 1
0.9375 1.16406 -1.04719 0 0 1
0.9375 1.17188 -1.04074 0 0 1
0.9375 1.17969 -1.02036 0 0 1
0.9375 1.1875 -0.89592 0 0 1
0.9375 1.19531 -0.892575 0 0 1
0.9375 1.20312 -0.889246 0 0 1
0.9375 1.21094 -0.885763 0 0 1
0.9375 1.21875 -0.880585 0 0 1
0.9375 1.22656 -0.880524 0 0 1
0.9375 1.23438 -0.878883 0 0 1
0.9375 1.24219 -0.874689 0 0 1
0.9375 1.25 -0.867603 0 0 1
0.9375 1.25781 -0.851364 0 0 1
0.945312 0.90625 -0.716593 0 0 1
0.945312 0.914062 -0.721526 0 0 1
0.945312 0.921875 -0.721648 0 0 1
0.945312 0.929688 -0.733735 0 0 1
0.945312 0.9375 -0.737816 0 0 1
0.945312 0.945312 -0.759078 0 0 1
0.945312 0.953125 -0.762629 0 0 1
0.945312 0.960938 -0.771913 0 0 1
0.945312 0.96875 -0.777527 0 0 1
0.945312 0.976562 -0.787438 0 0 1
0.945312 0.984375 -0.799332 0 0 1
0.945312 0.992188 -0.817317 0 0 1
0.945312 1 -0.824834 0 0 1
0.945312 1.00781 -0.829653 0 0 1
0.945312 1.01562 -0.841148 0 0 1
0.945312 1.02344 -0.844536 0 0 1
0.945312 1.03125 -0.859773 0 0 1
0.945312 1.03906 -1.07554 0 0 1
0.945312 1.04688 -1.08775 0 0 1
0.945312 1.05469 -1.09647 0 0 1
0.945312 1.0625 -1.10002 0 0 1
0.945312 1.07031 -1.10071 0 0 1
0.945312 1.07812 -1.09904 0 0 1
0.945312 1.08594 -1.09443 0 0 1
0.945312 1.09375 -1.09401 0 0 1
0.945312 1.10156 -1.09041 0 0 1
0.945312 1.10938 -1.08744 0 0 1
0.945312 1.11719 -1.08076 0 0 1
0.945312 1.125 -1.07914 0 0 1
0.945312 1.13281 -1.07343 0 0 1
0.945312 1.14062 -1.06536 0 0 1
0.945312 1.14844 -1.06135 0 0 1
0.945312 1.15625 -1.052 0 0 1
0.945312 1.16406 -1.04053 0 0 1
0.945312 1.17188 -1.02058 0 0 1
0.945312 1.17969 -0.892109 0 0 1
0.945312 1.1875 -0.887759 0 0 1
0.945312 1.19531 -0.882324 0 0 1
0.945312 1.20312 -0.88054 0 0 1
0.945312 1.21094 -0.877172 0 0 1
0.945312 1.21875 -0.873767 0 0 1
0.945312 1.22656 -0.871402 0 0 1
0.945312 1.23438 -0.867247 0 0 1
0.945312 1.24219 -0.862639 0 0 1
0.945312 1.25 -0.853187 0 0 1
0.945312 1.25781 -0.830635 0 0 1
0.953125 0.890625 -0.693649 0 0 1
0.953125 0.898438 -0.720971 0 0 1
0.953125 0.90625 -0.728335 0 0 1
0.953125 0.914062 -0.7355 0 0 1
0.953125 0.921875 -0.747328 0 0 1
0.953125 0.929688 -0.75175 0 0 1
0.953125 0.9375 -0.75929 0 0 1
0.953125 0.945312 -0.767244 0 0 1
0.953125 0.953125 -0.776098 0 0 1
0.953125 0.960938 -0.776626 0 0 1
0.953125 0.96875 -0.79256 0 0 1
0.953125 0.976562 -0.794553 0 0 1
0.953125 0.984375 -0.813057 0 0 1
0.953125 0.992188 -0.826569 0 0 1
0.953125 1 -0.836266 0 0 1
0.953125 1.00781 -0.842751 0 0 1
0.953125 1.01562 -0.849224 0 0 1
0.953125 1.02344 -0.860561 0 0 1
0.953125 1.03125 -1.07847 0 0 1
0.953125 1.03906 -1.0881 0 0 1
0.953125 1.04688 -1.09889 0 0 1
0.953125 1.05469 -1.10602 0 0 1
0.953125 1.0625 -1.10997 0 0 1
0.953125 1.07031 -1.10893 0 0 1
0.953125 1.07812 -1.10646 0 0 1
0.953125 1.08594 -1.10226 0 0 1
0.953125 1.09375 -1.0986 0 0 1
0.953125 1.10156 -1.09443 0 0 1
0.953125 1.10938 -1.08843 0 0 1
0.953125 1.11719 -1.08324 0 0 1
0.953125 1.125 -1.07859 0 0 1
0.953125 1.13281 -1.07186 0 0 1
0.953125 1.14062 -1.06617 0 0 1
0.953125 1.14844 -1.05709 0 0 1
0.953125 1.15625 -1.04617 0 0 1
0.953125 1.16406 -1.02986 0 0 1
0.953125 1.17188 -0.890729 0 0 1
0.953125 1.17969 -0.885107 0 0 1
0.953125 1.1875 -0.881536 0 0 1
0.953125 1.19531 -0.874803 0 0 1
0.953125 1.20312 -0.870183 0 0 1
0.953125 1.21094 -0.866479 0 0 1
0.953125 1.21875 -0.864684 0 0 1
0.953125 1.22656 -0.860065 0 0 1
0.953125 1.23438 -0.853809 0 0 1
0.953125 1.24219 -0.84912 0 0 1
0.953125 1.25 -0.836811 0 0 1
0.960938 0.875 -0.710779 0 0 1
0.960938 0.882812 -0.71276 0 0 1
0.960938 0.890625 -0.730276 0 0 1
0.960938 0.898438 -0.741567 0 0 1
0.960938 0.90625 -0.748758 0 0 1
0.960938 0.914062 -0.745393 0 0 1
0.960938 0.921875 -0.760383 0 0 1
0.960938 0.929688 -0.76784 0 0 1
0.960938 0.9375 -0.771869 0 0 1
0.960938 0.945312 -0.775002 0 0 1
0.960938 0.953125 -0.787417 0 0 1
0.960938 0.960938 -0.802062 0 0 1
0.960938 0.96875 -0.807336 0 0 1
0.960938 0.976562 -0.816995 0 0 1
0.960938 0.984375 -0.830851 0 0 1
0.960938 0.992188 -0.837494 0 0 1
0.960938 1 -0.840428 0 0 1
0.960938 1.00781 -0.850349 0 0 1
0.960938 1.01562 -0.851463 0 0 1
0.960938 1.02344 -1.08815 0 0 1
0.960938 1.03125 -1.09212 0 0 1
0.960938 1.03906 -1.10208 0 0 1
0.960938 1.04688 -1.10994 0 0 1
0.960938 1.05469 -1.11325 0 0 1
0.960938 1.0625 -1.11183 0 0 1
0.960938 1.07031 -1.11546 0 0 1
0.960938 1.07812 -1.11283 0 0 1
0.960938 1.08594 -1.10481 0 0 1
0.960938 1.09375 -1.10248 0 0 1
0.960938 1.10156 -1.09468 0 0 1
0.960938 1.10938 -1.08868 0 0 1
0.960938 1.11719 -1.08136 0 0 1
0.960938 1.125 -1.07448 0 0 1
0.960938 1.13281 -1.06763 0 0 1
0.960938 1.14062 -1.06026 0 0 1
0.960938 1.14844 -1.05128 0 0 1
0.960938 1.15625 -0.89459 0 0 1
0.960938 1.16406 -0.888265 0 0 1
0.960938 1.17188 -0.882869 0 0 1
0.960938 1.17969 -0.875885 0 0 1
0.960938 1.1875 -0.870953 0 0 1
0.960938 1.19531 -0.8636 0 0 1
0.960938 1.20312 -0.858706 0 0 1
0.960938 1.21094 -0.853994 0 0 1
0.960938 1.21875 -0.849773 0 0 1
0.960938 1.22656 -0.843554 0 0 1
0.960938 1.23438 -0.831977 0 0 1
0.96875 0.851562 -0.683927 0 0 1
0.96875 0.859375 -0.726783 0 0 1
0.96875 0.867188 -0.728364 0 0 1
0.96875 0.875 -0.739938 0 0 1
0.96875 0.882812 -0.747639 0 0 1
0.96875 0.890625 -0.749038 0 0 1
0.96875 0.898438 -0.755335 0 0 1
0.96875 0.90625 -0.759443 0 0 1
0.96875 0.914062 -0.766392 0 0 1
0.96875 0.921875 -0.769895 0 0 1
0.96875 0.929688 -0.773797 0 0 1
0.96875 0.9375 -0.783233 0 0 1
0.96875 0.945312 -0.791776 0 0 1
0.96875 0.953125 -0.804452 0 0 1
0.96875 0.960938 -0.812134 0 0 1
0.96875 0.96875 -0.822309 0 0 1
0.96875 0.976562 -0.832481 0 0 1
0.96875 0.984375 -0.838519 0 0 1
0.96875 0.992188 -0.848032 0 0 1
0.96875 1 -0.851842 0 0 1
0.96875 1.00781 -0.857784 0 0 1
0.96875 1.01562 -1.0921 0 0 1
0.96875 1.02344 -1.10013 0 0 1
0.96875 1.03125 -1.10748 0 0 1
0.96875 1.03906 -1.11309 0 0 1
0.96875 1.04688 -1.11682 0 0 1
0.96875 1.05469 -1.12037 0 0 1
0.96875 1.0625 -1.12103 0 0 1
0.96875 1.07031 -1.11879 0 0 1
0.96875 1.07812 -1.11501 0 0 1
0.96875 1.08594 -1.10631 0 0 1
0.96875 1.09375 -1.10274 0 0 1
0.96875 1.10156 -1.09351 0 0 1
0.96875 1.10938 -1.08503 0 0 1
0.96875 1.11719 -1.07819 0 0 1
0.96875 1.125 -1.07126 0 0 1
0.96875 1.13281 -1.0635 0 0 1
0.96875 1.14062 -1.05191 0 0 1
0.96875 1.14844 -0.891709 0 0 1
0.96875 1.15625 -0.887688 0 0 1
0.96875 1.16406 -0.881276 0 0 1
0.96875 1.17188 -0.873847 0 0 1
0.96875 1.17969 -0.861095 0 0 1
0.96875 1.1875 -0.853962 0 0 1
0.96875 1.19531 -0.851104 0 0 1
0.96875 1.20312 -0.842225 0 0 1
0.96875 1.21094 -0.836664 0 0 1
0.96875 1.21875 -0.826787 0 0 1
0.96875 1.22656 -0.809719 0 0 1
0.976562 0.835938 -0.707064 0 0 1
0.976562 0.84375 -0.729948 0 0 1
0.976562 0.851562 -0.736697 0 0 1
0.976562 0.859375 -0.746028 0 0 1
0.976562 0.867188 -0.750141 0 0 1
0.976562 0.875 -0.753958 0 0 1
0.976562 0.882812 -0.763671 0 0 1
0.976562 0.890625 -0.768443 0 0 1
0.976562 0.898438 -0.768534 0 0 1
0.976562 0.90625 -0.771572 0 0 1
0.976562 0.914062 -0.778214 0 0 1
0.976562 0.921875 -0.782217 0 0 1
0.976562 0.929688 -0.792904 0 0 1
0.976562 0.9375 -0.805479 0 0 1
0.976562 0.945312 -0.806028 0 0 1
0.976562 0.953125 -0.820248 0 0 1
0.976562 0.960938 -0.827092 0 0 1
0.976562 0.96875 -0.827586 0 0 1
0.976562 0.976562 -0.842973 0 0 1
0.976562 0.984375 -0.849516 0 0 1
0.976562 0.992188 -0.852645 0 0 1
0.976562 1 -0.85857 0 0 1
0.976562 1.00781 -1.09735 0 0 1
0.976562 1.01562 -1.10567 0 0 1
0.976562 1.02344 -1.10817 0 0 1
0.976562 1.03125 -1.11624 0 0 1
0.976562 1.03906 -1.1203 0 0 1
0.976562 1.04688 -1.12473 0 0 1
0.976562 1.05469 -1.12283 0 0 1
0.976562 1.0625 -1.12461 0 0 1
0.976562 1.07031 -1.12118 0 0 1
0.976562 1.07812 -1.11485 0 0 1
0.976562 1.08594 -1.10879 0 0 1
0.976562 1.09375 -1.09899 0 0 1
0.976562 1.10156 -1.09413 0 0 1
0.976562 1.10938 -1.08302 0 0 1
0.976562 1.11719 -1.0673 0 0 1
0.976562 1.125 -1.0601 0 0 1
0.976562 1.13281 -1.04692 0 0 1
0.976562 1.14062 -0.888891 0 0 1
0.976562 1.14844 -0.88227 0 0 1
0.976562 1.15625 -0.877976 0 0 1
0.976562 1.16406 -0.869202 0 0 1
0.976562 1.17188 -0.861477 0 0 1
0.976562 1.17969 -0.84953 0 0 1
0.976562 1.1875 -0.844965 0 0 1
0.976562 1.19531 -0.832866 0 0 1
0.976562 1.20312 -0.82501 0 0 1
0.976562 1.21094 -0.811992 0 0 1
0.984375 0.828125 -0.722121 0 0 1
0.984375 0.835938 -0.734419 0 0 1
0.984375 0.84375 -0.746912 0 0 1
0.984375 0.851562 -0.755424 0 0 1
0.984375 0.859375 -0.759024 0 0 1
0.984375 0.867188 -0.766103 0 0 1
0.984375 0.875 -0.762931 0 0 1
0.984375 0.882812 -0.779615 0 0 1
0.984375 0.890625 -0.779537 0 0 1
0.984375 0.898438 -0.784856 0 0 1
0.984375 0.90625 -0.787476 0 0 1
0.984375 0.914062 -0.791796 0 0 1
0.984375 0.921875 -0.80398 0 0 1
0.984375 0.929688 -0.811276 0 0 1
0.984375 0.9375 -0.818336 0 0 1
0.984375 0.945312 -0.819088 0 0 1
0.984375 0.953125 -0.828834 0 0 1
0.984375 0.960938 -0.839182 0 0 1
0.984375 0.96875 -0.846248 0 0 1
0.984375 0.976562 -0.851341 0 0 1
0.984375 0.984375 -0.857222 0 0 1
0.984375 0.992188 -0.860527 0 0 1
0.984375 1 -0.865436 0 0 1
0.984375 1.00781 -1.10965 0 0 1
0.984375 1.01562 -1.11442 0 0 1
0.984375 1.02344 -1.11997 0 0 1
0.984375 1.03125 -1.12383 0 0 1
0.984375 1.03906 -1.12691 0 0 1
0.984375 1.04688 -1.12851 0 0 1
0.984375 1.05469 -1.12903 0 0 1
0.984375 1.0625 -1.12804 0 0 1
0.984375 1.07031 -1.12273 0 0 1
0.984375 1.07812 -1.11836 0 0 1
0.984375 1.08594 -1.11088 0 0 1
0.984375 1.09375 -1.10002 0 0 1
0.984375 1.10156 -1.08916 0 0 1
0.984375 1.10938 -1.06732 0 0 1
0.984375 1.11719 -1.0526 0 0 1
0.984375 1.125 -0.888818 0 0 1
0.984375 1.13281 -0.887654 0 0 1
0.984375 1.14062 -0.883644 0 0 1
0.984375 1.14844 -0.873307 0 0 1
0.984375 1.15625 -0.867435 0 0 1
0.984375 1.16406 -0.855177 0 0 1
0.984375 1.17188 -0.847365 0 0 1
0.984375 1.17969 -0.834346 0 0 1
0.984375 1.1875 -0.828101 0 0 1
0.984375 1.19531 -0.818461 0 0 1
0.984375 1.20312 -0.805235 0 0 1
0.992188 0.8125 -0.710623 0 0 1
0.992188 0.820312 -0.723969 0 0 1
0.992188 0.828125 -0.742924 0 0 1
0.992188 0.835938 -0.746262 0 0 1
0.992188 0.84375 -0.758412 0 0 1
0.992188 0.851562 -0.767864 0 0 1
0.992188 0.859375 -0.775095 0 0 1
