1.03906 0.851562 -0.839873 0 0 1
1.03906 0.859375 -0.84569 0 0 1
1.03906 0.867188 -0.850396 0 0 1
1.03906 0.875 -0.853983 0 0 1
1.03906 0.882812 -0.856198 0 0 1
1.03906 0.890625 -0.85957 0 0 1
1.03906 0.898438 -0.862529 0 0 1
1.03906 0.90625 -0.864563 0 0 1
1.03906 0.914062 -0.8684 0 0 1
1.03906 0.921875 -0.87061 0 0 1
1.03906 0.929688 -0.875592 0 0 1
1.03906 0.9375 -0.879698 0 0 1
1.03906 0.945312 -0.883065 0 0 1
1.03906 0.953125 -0.885177 0 0 1
1.03906 0.960938 -0.88719 0 0 1
1.03906 0.96875 -0.889377 0 0 1
1.03906 0.976562 -1.13822 0 0 1
1.03906 0.984375 -1.14572 0 0 1
1.03906 0.992188 -1.14823 0 0 1
1.03906 1 -1.15086 0 0 1
1.03906 1.00781 -1.15184 0 0 1
1.03906 1.01562 -1.15252 0 0 1
1.03906 1.02344 -1.1521 0 0 1
1.03906 1.03125 -1.15051 0 0 1
1.03906 1.03906 -1.14653 0 0 1
1.03906 1.04688 -1.14138 0 0 1
1.03906 1.05469 -1.1358 0 0 1
1.03906 1.0625 -1.12812 0 0 1
1.03906 1.07031 -0.886717 0 0 1
1.03906 1.07812 -0.884696 0 0 1
1.03906 1.08594 -0.881572 0 0 1
1.03906 1.09375 -0.878044 0 0 1
1.03906 1.10156 -0.871752 0 0 1
1.03906 1.10938 -0.863972 0 0 1
1.03906 1.11719 -0.856133 0 0 1
1.03906 1.125 -0.838899 0 0 1
1.03906 1.13281 -0.819863 0 0 1
1.03906 1.14062 -0.802507 0 0 1
1.03906 1.14844 -0.787477 0 0 1
1.04688 0.773438 -0.734718 0 0 1
1.04688 0.78125 -0.741191 0 0 1
1.04688 0.789062 -0.755186 0 0 1
1.04688 0.796875 -0.772405 0 0 1
1.04688 0.804688 -0.788375 0 0 1
1.04688 0.8125 -0.796435 0 0 1
1.04688 0.820312 -0.811359 0 0 1
1.04688 0.828125 -0.823935 0 0 1
1.04688 0.835938 -0.833165 0 0 1
1.04688 0.84375 -0.841509 0 0 1
1.04688 0.851562 -0.845091 0 0 1
1.04688 0.859375 -0.851167 0 0 1
1.04688 0.867188 -0.855076 0 0 1
1.04688 0.875 -0.858617 0 0 1
1.04688 0.882812 -0.861614 0 0 1
1.04688 0.890625 -0.864903 0 0 1
1.04688 0.898438 -0.866443 0 0 1
1.04688 0.90625 -0.869148 0 0 1
1.04688 0.914062 -0.871587 0 0 1
1.04688 0.921875 -0.874238 0 0 1
1.04688 0.929688 -0.877632 0 0 1
1.04688 0.9375 -0.881896 0 0 1
1.04688 0.945312 -0.884147 0 0 1
1.04688 0.953125 -0.887139 0 0 1
1.04688 0.960938 -0.889893 0 0 1
1.04688 0.96875 -1.13658 0 0 1
1.04688 0.976562 -1.14619 0 0 1
1.04688 0.984375 -1.14984 0 0 1
1.04688 0.992188 -1.15329 0 0 1
1.04688 1 -1.15378 0 0 1
1.04688 1.00781 -1.15517 0 0 1
1.04688 1.01562 -1.15496 0 0 1
1.04688 1.02344 -1.1542 0 0 1
1.04688 1.03125 -1.15209 0 0 1
1.04688 1.03906 -1.14652 0 0 1
1.04688 1.04688 -1.14033 0 0 1
1.04688 1.05469 -1.13419 0 0 1
1.04688 1.0625 -1.12227 0 0 1
1.04688 1.07031 -0.885613 0 0 1
1.04688 1.07812 -0.882489 0 0 1
1.04688 1.08594 -0.879905 0 0 1
1.04688 1.09375 -0.875021 0 0 1
1.04688 1.10156 -0.86959 0 0 1
1.04688 1.10938 -0.858912 0 0 1
1.04688 1.11719 -0.848178 0 0 1
1.04688 1.125 -0.828017 0 0 1
1.04688 1.13281 -0.805089 0 0 1
1.04688 1.14062 -0.78931 0 0 1
1.05469 0.765625 -0.704012 0 0 1
1.05469 0.773438 -0.747192 0 0 1
1.05469 0.78125 -0.753475 0 0 1
1.05469 0.789062 -0.764533 0 0 1
1.05469 0.796875 -0.784149 0 0 1
1.05469 0.804688 -0.797888 0 0 1
1.05469 0.8125 -0.809661 0 0 1
1.05469 0.820312 -0.822051 0 0 1
1.05469 0.828125 -0.833176 0 0 1
1.05469 0.835938 -0.840206 0 0 1
1.05469 0.84375 -0.848899 0 0 1
1.05469 0.851562 -0.852541 0 0 1
1.05469 0.859375 -0.856202 0 0 1
1.05469 0.867188 -0.859355 0 0 1
1.05469 0.875 -0.861603 0 0 1
1.05469 0.882812 -0.866135 0 0 1
1.05469 0.890625 -0.86772 0 0 1
1.05469 0.898438 -0.869918 0 0 1
1.05469 0.90625 -0.872547 0 0 1
1.05469 0.914062 -0.874406 0 0 1
1.05469 0.921875 -0.877525 0 0 1
1.05469 0.929688 -0.878394 0 0 1
1.05469 0.9375 -0.882022 0 0 1
1.05469 0.945312 -0.885808 0 0 1
1.05469 0.953125 -0.888893 0 0 1
1.05469 0.960938 -1.12249 0 0 1
1.05469 0.96875 -1.14677 0 0 1
1.05469 0.976562 -1.15195 0 0 1
1.05469 0.984375 -1.15495 0 0 1
1.05469 0.992188 -1.15741 0 0 1
1.05469 1 -1.15775 0 0 1
1.05469 1.00781 -1.15814 0 0 1
1.05469 1.01562 -1.15773 0 0 1
1.05469 1.02344 -1.1551 0 0 1
1.05469 1.03125 -1.15167 0 0 1
1.05469 1.03906 -1.14635 0 0 1
1.05469 1.04688 -1.13821 0 0 1
1.05469 1.05469 -1.12882 0 0 1
1.05469 1.0625 -0.884485 0 0 1
1.05469 1.07031 -0.882336 0 0 1
1.05469 1.07812 -0.880975 0 0 1
1.05469 1.08594 -0.876559 0 0 1
1.05469 1.09375 -0.871694 0 0 1
1.05469 1.10156 -0.865098 0 0 1
1.05469 1.10938 -0.852538 0 0 1
1.05469 1.11719 -0.83416 0 0 1
1.05469 1.125 -0.813493 0 0 1
1.05469 1.13281 -0.785471 0 0 1
1.0625 0.765625 -0.710091 0 0 1
1.0625 0.773438 -0.755025 0 0 1
1.0625 0.78125 -0.76404 0 0 1
1.0625 0.789062 -0.774794 0 0 1
1.0625 0.796875 -0.79073 0 0 1
1.0625 0.804688 -0.806855 0 0 1
1.0625 0.8125 -0.816678 0 0 1
1.0625 0.820312 -0.834128 0 0 1
1.0625 0.828125 -0.840178 0 0 1
1.0625 0.835938 -0.847658 0 0 1
1.0625 0.84375 -0.853469 0 0 1
1.0625 0.851562 -0.858678 0 0 1
1.0625 0.859375 -0.859551 0 0 1
1.0625 0.867188 -0.862121 0 0 1
1.0625 0.875 -0.866049 0 0 1
1.0625 0.882812 -0.866891 0 0 1
1.0625 0.890625 -0.869852 0 0 1
1.0625 0.898438 -0.871984 0 0 1
1.0625 0.90625 -0.875162 0 0 1
1.0625 0.914062 -0.877591 0 0 1
1.0625 0.921875 -0.87961 0 0 1
1.0625 0.929688 -0.881746 0 0 1
1.0625 0.9375 -0.883286 0 0 1
1.0625 0.945312 -0.886859 0 0 1
1.0625 0.953125 -0.889848 0 0 1
1.0625 0.960938 -1.14495 0 0 1
1.0625 0.96875 -1.1525 0 0 1
1.0625 0.976562 -1.15788 0 0 1
1.0625 0.984375 -1.1588 0 0 1
1.0625 0.992188 -1.16061 0 0 1
1.0625 1 -1.16052 0 0 1
1.0625 1.00781 -1.15999 0 0 1
1.0625 1.01562 -1.15849 0 0 1
1.0625 1.02344 -1.1547 0 0 1
1.0625 1.03125 -1.15155 0 0 1
1.0625 1.03906 -1.14545 0 0 1
1.0625 1.04688 -1.13677 0 0 1
1.0625 1.05469 -1.11301 0 0 1
1.0625 1.0625 -0.883252 0 0 1
1.0625 1.07031 -0.880621 0 0 1
1.0625 1.07812 -0.877565 0 0 1
1.0625 1.08594 -0.874603 0 0 1
1.0625 1.09375 -0.868615 0 0 1
1.0625 1.10156 -0.859339 0 0 1
1.0625 1.10938 -0.848598 0 0 1
1.0625 1.11719 -0.825674 0 0 1
1.0625 1.125 -0.793033 0 0 1
1.07031 0.757812 -0.669515 0 0 1
1.07031 0.765625 -0.709481 0 0 1
1.07031 0.773438 -0.764864 0 0 1
1.07031 0.78125 -0.770754 0 0 1
1.07031 0.789062 -0.783324 0 0 1
1.07031 0.796875 -0.802338 0 0 1
1.07031 0.804688 -0.818743 0 0 1
1.07031 0.8125 -0.829754 0 0 1
1.07031 0.820312 -0.838336 0 0 1
1.07031 0.828125 -0.846192 0 0 1
1.07031 0.835938 -0.852408 0 0 1
1.07031 0.84375 -0.858001 0 0 1
1.07031 0.851562 -0.862035 0 0 1
1.07031 0.859375 -0.864078 0 0 1
1.07031 0.867188 -0.866738 0 0 1
1.07031 0.875 -0.866763 0 0 1
1.07031 0.882812 -0.868993 0 0 1
1.07031 0.890625 -0.873204 0 0 1
1.07031 0.898438 -0.874192 0 0 1
1.07031 0.90625 -0.877512 0 0 1
1.07031 0.914062 -0.879017 0 0 1
1.07031 0.921875 -0.880669 0 0 1
1.07031 0.929688 -0.884455 0 0 1
1.07031 0.9375 -0.88464 0 0 1
1.07031 0.945312 -0.886605 0 0 1
1.07031 0.953125 -1.12786 0 0 1
1.07031 0.960938 -1.15051 0 0 1
1.07031 0.96875 -1.15973 0 0 1
1.07031 0.976562 -1.1622 0 0 1
1.07031 0.984375 -1.16281 0 0 1
1.07031 0.992188 -1.1638 0 0 1
1.07031 1 -1.16304 0 0 1
1.07031 1.00781 -1.16166 0 0 1
1.07031 1.01562 -1.15926 0 0 1
1.07031 1.02344 -1.15491 0 0 1
1.07031 1.03125 -1.15029 0 0 1
1.07031 1.03906 -1.14239 0 0 1
1.07031 1.04688 -1.12747 0 0 1
1.07031 1.05469 -0.881487 0 0 1
1.07031 1.0625 -0.880533 0 0 1
1.07031 1.07031 -0.878661 0 0 1
1.07031 1.07812 -0.875184 0 0 1
1.07031 1.08594 -0.870144 0 0 1
1.07031 1.09375 -0.864834 0 0 1
1.07031 1.10156 -0.853054 0 0 1
1.07031 1.10938 -0.836861 0 0 1
1.07031 1.11719 -0.796997 0 0 1
1.07812 0.75 -0.65351 0 0 1
1.07812 0.757812 -0.679539 0 0 1
1.07812 0.765625 -0.710305 0 0 1
1.07812 0.773438 -0.771387 0 0 1
1.07812 0.78125 -0.781778 0 0 1
1.07812 0.789062 -0.792685 0 0 1
1.07812 0.796875 -0.809155 0 0 1
1.07812 0.804688 -0.825279 0 0 1
1.07812 0.8125 -0.836648 0 0 1
1.07812 0.820312 -0.844629 0 0 1
1.07812 0.828125 -0.85273 0 0 1
1.07812 0.835938 -0.856465 0 0 1
1.07812 0.84375 -0.861274 0 0 1
1.07812 0.851562 -0.864767 0 0 1
1.07812 0.859375 -0.866712 0 0 1
1.07812 0.867188 -0.867174 0 0 1
1.07812 0.875 -0.86803 0 0 1
1.07812 0.882812 -0.872833 0 0 1
1.07812 0.890625 -0.874048 0 0 1
1.07812 0.898438 -0.876253 0 0 1
1.07812 0.90625 -0.877789 0 0 1
1.07812 0.914062 -0.880054 0 0 1
1.07812 0.921875 -0.881163 0 0 1
1.07812 0.929688 -0.884299 0 0 1
1.07812 0.9375 -0.886846 0 0 1
1.07812 0.945312 -0.886328 0 0 1
1.07812 0.953125 -1.14808 0 0 1
1.07812 0.960938 -1.1589 0 0 1
1.07812 0.96875 -1.16335 0 0 1
1.07812 0.976562 -1.16626 0 0 1
1.07812 0.984375 -1.16647 0 0 1
1.07812 0.992188 -1.16572 0 0 1
1.07812 1 -1.16456 0 0 1
1.07812 1.00781 -1.16328 0 0 1
1.07812 1.01562 -1.15978 0 0 1
1.07812 1.02344 -1.15429 0 0 1
1.07812 1.03125 -1.14817 0 0 1
1.07812 1.03906 -1.1378 0 0 1
1.07812 1.04688 -0.882084 0 0 1
1.07812 1.05469 -0.879642 0 0 1
1.07812 1.0625 -0.877244 0 0 1
1.07812 1.07031 -0.875014 0 0 1
1.07812 1.07812 -0.870584 0 0 1
1.07812 1.08594 -0.865542 0 0 1
1.07812 1.09375 -0.860367 0 0 1
1.07812 1.10156 -0.848968 0 0 1
1.07812 1.10938 -0.815633 0 0 1
1.08594 0.742188 -0.641943 0 0 1
1.08594 0.75 -0.669911 0 0 1
1.08594 0.757812 -0.685712 0 0 1
1.08594 0.765625 -0.695575 0 0 1
1.08594 0.773438 -0.779703 0 0 1
1.08594 0.78125 -0.793476 0 0 1
1.08594 0.789062 -0.804581 0 0 1
1.08594 0.796875 -0.820931 0 0 1
1.08594 0.804688 -0.832079 0 0 1
1.08594 0.8125 -0.840121 0 0 1
1.08594 0.820312 -0.848812 0 0 1
1.08594 0.828125 -0.856224 0 0 1
1.08594 0.835938 -0.860714 0 0 1
1.08594 0.84375 -0.865216 0 0 1
1.08594 0.851562 -0.866325 0 0 1
1.08594 0.859375 -0.868686 0 0 1
1.08594 0.867188 -0.871033 0 0 1
1.08594 0.875 -0.872339 0 0 1
1.08594 0.882812 -0.873538 0 0 1
1.08594 0.890625 -0.874746 0 0 1
1.08594 0.898438 -0.877238 0 0 1
1.08594 0.90625 -0.878458 0 0 1
1.08594 0.914062 -0.880945 0 0 1
1.08594 0.921875 -0.881805 0 0 1
1.08594 0.929688 -0.88458 0 0 1
1.08594 0.9375 -0.888036 0 0 1
1.08594 0.945312 -0.889827 0 0 1
1.08594 0.953125 -1.15508 0 0 1
1.08594 0.960938 -1.1653 0 0 1
1.08594 0.96875 -1.16734 0 0 1
1.08594 0.976562 -1.16915 0 0 1
1.08594 0.984375 -1.16968 0 0 1
1.08594 0.992188 -1.16906 0 0 1
1.08594 1 -1.16666 0 0 1
1.08594 1.00781 -1.1644 0 0 1
1.08594 1.01562 -1.15913 0 0 1
1.08594 1.02344 -1.15336 0 0 1
1.08594 1.03125 -1.14342 0 0 1
1.08594 1.03906 -0.882014 0 0 1
1.08594 1.04688 -0.880102 0 0 1
1.08594 1.05469 -0.875247 0 0 1
1.08594 1.0625 -0.872664 0 0 1
1.08594 1.07031 -0.870352 0 0 1
1.08594 1.07812 -0.867845 0 0 1
1.08594 1.08594 -0.863256 0 0 1
1.08594 1.09375 -0.853108 0 0 1
1.08594 1.10156 -0.832758 0 0 1
1.08594 1.10938 -0.770301 0 0 1
1.09375 0.734375 -0.637724 0 0 1
1.09375 0.742188 -0.660205 0 0 1
1.09375 0.75 -0.676436 0 0 1
1.09375 0.757812 -0.688973 0 0 1
1.09375 0.765625 -0.696432 0 0 1
1.09375 0.773438 -0.783842 0 0 1
1.09375 0.78125 -0.799704 0 0 1
1.09375 0.789062 -0.811349 0 0 1
1.09375 0.796875 -0.825541 0 0 1
1.09375 0.804688 -0.838657 0 0 1
1.09375 0.8125 -0.846641 0 0 1
1.09375 0.820312 -0.854359 0 0 1
1.09375 0.828125 -0.859707 0 0 1
1.09375 0.835938 -0.862681 0 0 1
1.09375 0.84375 -0.865898 0 0 1
1.09375 0.851562 -0.86937 0 0 1
1.09375 0.859375 -0.870557 0 0 1
1.09375 0.867188 -0.874106 0 0 1
1.09375 0.875 -0.874891 0 0 1
1.09375 0.882812 -0.875588 0 0 1
1.09375 0.890625 -0.876798 0 0 1
1.09375 0.898438 -0.878493 0 0 1
1.09375 0.90625 -0.879881 0 0 1
1.09375 0.914062 -0.881003 0 0 1
1.09375 0.921875 -0.883432 0 0 1
1.09375 0.929688 -0.885511 0 0 1
1.09375 0.9375 -0.888248 0 0 1
1.09375 0.945312 -1.14881 0 0 1
1.09375 0.953125 -1.1638 0 0 1
1.09375 0.960938 -1.16849 0 0 1
1.09375 0.96875 -1.17125 0 0 1
1.09375 0.976562 -1.17253 0 0 1
1.09375 0.984375 -1.17182 0 0 1
1.09375 0.992188 -1.17026 0 0 1
1.09375 1 -1.16784 0 0 1
1.09375 1.00781 -1.16422 0 0 1
1.09375 1.01562 -1.15889 0 0 1
1.09375 1.02344 -1.14928 0 0 1
1.09375 1.03125 -1.12869 0 0 1
1.09375 1.03906 -0.880097 0 0 1
1.09375 1.04688 -0.875741 0 0 1
1.09375 1.05469 -0.870923 0 0 1
1.09375 1.0625 -0.868158 0 0 1
1.09375 1.07031 -0.866098 0 0 1
1.09375 1.07812 -0.862723 0 0 1
1.09375 1.08594 -0.8559 0 0 1
1.09375 1.09375 -0.842248 0 0 1
1.09375 1.10156 -0.778218 0 0 1
1.10156 0.726562 -0.638801 0 0 1
1.10156 0.734375 -0.660899 0 0 1
1.10156 0.742188 -0.671798 0 0 1
1.10156 0.75 -0.682168 0 0 1
1.10156 0.757812 -0.692132 0 0 1
1.10156 0.765625 -0.69929 0 0 1
1.10156 0.773438 -0.785374 0 0 1
1.10156 0.78125 -0.805906 0 0 1
1.10156 0.789062 -0.817158 0 0 1
1.10156 0.796875 -0.833187 0 0 1
1.10156 0.804688 -0.844537 0 0 1
1.10156 0.8125 -0.852728 0 0 1
1.10156 0.820312 -0.858048 0 0 1
1.10156 0.828125 -0.861822 0 0 1
1.10156 0.835938 -0.866817 0 0 1
1.10156 0.84375 -0.869296 0 0 1
1.10156 0.851562 -0.869991 0 0 1
1.10156 0.859375 -0.873473 0 0 1
1.10156 0.867188 -0.874503 0 0 1
1.10156 0.875 -0.876828 0 0 1
1.10156 0.882812 -0.87675 0 0 1
1.10156 0.890625 -0.877267 0 0 1
1.10156 0.898438 -0.878641 0 0 1
1.10156 0.90625 -0.8799 0 0 1
1.10156 0.914062 -0.882543 0 0 1
1.10156 0.921875 -0.88428 0 0 1
1.10156 0.929688 -0.595674 0 0 1
1.10156 0.9375 -0.887797 0 0 1
1.10156 0.945312 -1.16149 0 0 1
1.10156 0.953125 -1.17112 0 0 1
1.10156 0.960938 -1.17413 0 0 1
1.10156 0.96875 -1.17517 0 0 1
1.10156 0.976562 -1.17506 0 0 1
1.10156 0.984375 -1.17543 0 0 1
1.10156 0.992188 -1.17234 0 0 1
1.10156 1 -1.17008 0 0 1
1.10156 1.00781 -1.16399 0 0 1
1.10156 1.01562 -1.15771 0 0 1
1.10156 1.02344 -1.14337 0 0 1
1.10156 1.03125 -0.880971 0 0 1
1.10156 1.03906 -0.876929 0 0 1
1.10156 1.04688 -0.871494 0 0 1
1.10156 1.05469 -0.868314 0 0 1
1.10156 1.0625 -0.862713 0 0 1
1.10156 1.07031 -0.860436 0 0 1
1.10156 1.07812 -0.857064 0 0 1
1.10156 1.08594 -0.847518 0 0 1
1.10156 1.09375 -0.823423 0 0 1
1.10938 0.71875 -0.639861 0 0 1
1.10938 0.726562 -0.656901 0 0 1
1.10938 0.734375 -0.6703 0 0 1
1.10938 0.742188 -0.677945 0 0 1
1.10938 0.75 -0.685984 0 0 1
1.10938 0.757812 -0.693581 0 0 1
1.10938 0.765625 -0.69913 0 0 1
1.10938 0.773438 -0.783861 0 0 1
1.10938 0.78125 -0.809624 0 0 1
1.10938 0.789062 -0.823549 0 0 1
1.10938 0.796875 -0.837415 0 0 1
1.10938 0.804688 -0.847593 0 0 1
1.10938 0.8125 -0.854805 0 0 1
1.10938 0.820312 -0.861176 0 0 1
1.10938 0.828125 -0.866137 0 0 1
1.10938 0.835938 -0.867652 0 0 1
1.10938 0.84375 -0.871144 0 0 1
1.10938 0.851562 -0.873529 0 0 1
1.10938 0.859375 -0.874402 0 0 1
1.10938 0.867188 -0.874297 0 0 1
1.10938 0.875 -0.876536 0 0 1
1.10938 0.882812 -0.876528 0 0 1
1.10938 0.890625 -0.877783 0 0 1
1.10938 0.898438 -0.878753 0 0 1
1.10938 0.90625 -0.881671 0 0 1
1.10938 0.914062 -0.882985 0 0 1
1.10938 0.921875 -0.883962 0 0 1
1.10938 0.929688 -0.889146 0 0 1
1.10938 0.9375 -1.15147 0 0 1
1.10938 0.945312 -1.16886 0 0 1
1.10938 0.953125 -1.1752 0 0 1
1.10938 0.960938 -1.17806 0 0 1
1.10938 0.96875 -1.17893 0 0 1
1.10938 0.976562 -1.17837 0 0 1
1.10938 0.984375 -1.17681 0 0 1
1.10938 0.992188 -1.17579 0 0 1
1.10938 1 -1.17035 0 0 1
1.10938 1.00781 -1.16487 0 0 1
1.10938 1.01562 -1.15313 0 0 1
1.10938 1.02344 -0.881474 0 0 1
1.10938 1.03125 -0.876587 0 0 1
1.10938 1.03906 -0.872371 0 0 1
1.10938 1.04688 -0.866264 0 0 1
1.10938 1.05469 -0.86277 0 0 1
1.10938 1.0625 -0.85718 0 0 1
1.10938 1.07031 -0.853749 0 0 1
1.10938 1.07812 -0.846128 0 0 1
1.10938 1.08594 -0.832253 0 0 1
1.11719 0.710938 -0.641715 0 0 1
1.11719 0.71875 -0.658225 0 0 1
1.11719 0.726562 -0.669119 0 0 1
1.11719 0.734375 -0.676046 0 0 1
1.11719 0.742188 -0.68383 0 0 1
1.11719 0.75 -0.689227 0 0 1
1.11719 0.757812 -0.694691 0 0 1
1.11719 0.765625 -0.700725 0 0 1
1.11719 0.773438 -0.779912 0 0 1
1.11719 0.78125 -0.816268 0 0 1
1.11719 0.789062 -0.830133 0 0 1
1.11719 0.796875 -0.839509 0 0 1
1.11719 0.804688 -0.849337 0 0 1
1.11719 0.8125 -0.856267 0 0 1
1.11719 0.820312 -0.862885 0 0 1
1.11719 0.828125 -0.868522 0 0 1
1.11719 0.835938 -0.871121 0 0 1
1.11719 0.84375 -0.872166 0 0 1
1.11719 0.851562 -0.874894 0 0 1
1.11719 0.859375 -0.875246 0 0 1
1.11719 0.867188 -0.875392 0 0 1
1.11719 0.875 -0.876644 0 0 1
1.11719 0.882812 -0.877658 0 0 1
1.11719 0.890625 -0.878972 0 0 1
1.11719 0.898438 -0.880273 0 0 1
1.11719 0.90625 -0.881798 0 0 1
1.11719 0.914062 -0.88389 0 0 1
1.11719 0.921875 -0.886608 0 0 1
1.11719 0.929688 -0.893517 0 0 1
1.11719 0.9375 -1.16733 0 0 1
1.11719 0.945312 -1.17669 0 0 1
1.11719 0.953125 -1.17976 0 0 1
1.11719 0.960938 -1.18153 0 0 1
1.11719 0.96875 -1.18157 0 0 1
1.11719 0.976562 -1.18172 0 0 1
1.11719 0.984375 -1.17992 0 0 1
1.11719 0.992188 -1.17587 0 0 1
1.11719 1 -1.17195 0 0 1
1.11719 1.00781 -1.16438 0 0 1
1.11719 1.01562 -0.880574 0 0 1
1.11719 1.02344 -0.876841 0 0 1
1.11719 1.03125 -0.873814 0 0 1
1.11719 1.03906 -0.867415 0 0 1
1.11719 1.04688 -0.862074 0 0 1
1.11719 1.05469 -0.85593 0 0 1
1.11719 1.0625 -0.847959 0 0 1
1.11719 1.07031 -0.839877 0 0 1
1.11719 1.07812 -0.830769 0 0 1
1.125 0.703125 -0.642793 0 0 1
1.125 0.710938 -0.656534 0 0 1
1.125 0.71875 -0.669747 0 0 1
1.125 0.726562 -0.676802 0 0 1
1.125 0.734375 -0.682106 0 0 1
1.125 0.742188 -0.687019 0 0 1
1.125 0.75 -0.691926 0 0 1
1.125 0.757812 -0.696954 0 0 1
1.125 0.765625 -0.701802 0 0 1
1.125 0.773438 -0.706877 0 0 1
1.125 0.78125 -0.818437 0 0 1
1.125 0.789062 -0.833451 0 0 1
1.125 0.796875 -0.842723 0 0 1
1.125 0.804688 -0.852208 0 0 1
1.125 0.8125 -0.857351 0 0 1
1.125 0.820312 -0.862305 0 0 1
1.125 0.828125 -0.867921 0 0 1
1.125 0.835938 -0.87236 0 0 1
1.125 0.84375 -0.872783 0 0 1
1.125 0.851562 -0.875462 0 0 1
1.125 0.859375 -0.876874 0 0 1
1.125 0.867188 -0.878383 0 0 1
1.125 0.875 -0.877344 0 0 1
1.125 0.882812 -0.878174 0 0 1
1.125 0.890625 -0.879665 0 0 1
1.125 0.898438 -0.88143 0 0 1
1.125 0.90625 -0.881627 0 0 1
1.125 0.914062 -0.883827 0 0 1
1.125 0.921875 -0.891439 0 0 1
1.125 0.929688 -0.8917 0 0 1
1.125 0.9375 -1.17714 0 0 1
1.125 0.945312 -1.18154 0 0 1
1.125 0.953125 -1.18389 0 0 1
1.125 0.960938 -1.18394 0 0 1
1.125 0.96875 -1.18489 0 0 1
1.125 0.976562 -1.18401 0 0 1
1.125 0.984375 -1.18206 0 0 1
1.125 0.992188 -1.17785 0 0 1
1.125 1 -1.16997 0 0 1
1.125 1.00781 -1.16062 0 0 1
1.125 1.01562 -0.878108 0 0 1
1.125 1.02344 -0.874499 0 0 1
1.125 1.03125 -0.868332 0 0 1
1.125 1.03906 -0.861825 0 0 1
1.125 1.04688 -0.856059 0 0 1
1.125 1.05469 -0.845854 0 0 1
1.125 1.0625 -0.834388 0 0 1
1.125 1.07031 -0.813974 0 0 1
1.13281 0.695312 -0.638658 0 0 1
1.13281 0.703125 -0.657336 0 0 1
1.13281 0.710938 -0.668234 0 0 1
1.13281 0.71875 -0.675779 0 0 1
1.13281 0.726562 -0.68117 0 0 1
1.13281 0.734375 -0.68684 0 0 1
1.13281 0.742188 -0.691633 0 0 1
1.13281 0.75 -0.694664 0 0 1
1.13281 0.757812 -0.69868 0 0 1
1.13281 0.765625 -0.701721 0 0 1
1.13281 0.773438 -0.706159 0 0 1
1.13281 0.78125 -0.804028 0 0 1
1.13281 0.789062 -0.827999 0 0 1
1.13281 0.796875 -0.845619 0 0 1
1.13281 0.804688 -0.853399 0 0 1
1.13281 0.8125 -0.860467 0 0 1
1.13281 0.820312 -0.866366 0 0 1
1.13281 0.828125 -0.868801 0 0 1
1.13281 0.835938 -0.871217 0 0 1
1.13281 0.84375 -0.873719 0 0 1
1.13281 0.851562 -0.878684 0 0 1
1.13281 0.859375 -0.878337 0 0 1
1.13281 0.867188 -0.879377 0 0 1
1.13281 0.875 -0.880226 0 0 1
1.13281 0.882812 -0.878448 0 0 1
1.13281 0.890625 -0.879166 0 0 1
1.13281 0.898438 -0.881211 0 0 1
1.13281 0.90625 -0.881862 0 0 1
1.13281 0.914062 -0.888819 0 0 1
1.13281 0.921875 -0.890449 0 0 1
1.13281 0.929688 -1.1742 0 0 1
1.13281 0.9375 -1.18594 0 0 1
1.13281 0.945312 -1.18662 0 0 1
1.13281 0.953125 -1.18819 0 0 1
1.13281 0.960938 -1.18799 0 0 1
1.13281 0.96875 -1.18818 0 0 1
1.13281 0.976562 -1.18538 0 0 1
1.13281 0.984375 -1.1836 0 0 1
1.13281 0.992188 -1.17849 0 0 1
1.13281 1 -1.1693 0 0 1
1.13281 1.00781 -0.876743 0 0 1
1.13281 1.01562 -0.873407 0 0 1
1.13281 1.02344 -0.869374 0 0 1
1.13281 1.03125 -0.863087 0 0 1
1.13281 1.03906 -0.857086 0 0 1
1.13281 1.04688 -0.846543 0 0 1
1.13281 1.05469 -0.832829 0 0 1
1.14062 0.6875 -0.639565 0 0 1
1.14062 0.695312 -0.655937 0 0 1
1.14062 0.703125 -0.66658 0 0 1
1.14062 0.710938 -0.674277 0 0 1
1.14062 0.71875 -0.679643 0 0 1
1.14062 0.726562 -0.685475 0 0 1
1.14062 0.734375 -0.689463 0 0 1
1.14062 0.742188 -0.692488 0 0 1
1.14062 0.75 -0.69646 0 0 1
1.14062 0.757812 -0.699164 0 0 1
1.14062 0.765625 -0.703 0 0 1
1.14062 0.773438 -0.705583 0 0 1
1.14062 0.78125 -0.768546 0 0 1
1.14062 0.789062 -0.833919 0 0 1
1.14062 0.796875 -0.846852 0 0 1
1.14062 0.804688 -0.854252 0 0 1
1.14062 0.8125 -0.861441 0 0 1
1.14062 0.820312 -0.865661 0 0 1
1.14062 0.828125 -0.867756 0 0 1
1.14062 0.835938 -0.872962 0 0 1
1.14062 0.84375 -0.876013 0 0 1
1.14062 0.851562 -0.878944 0 0 1
1.14062 0.859375 -0.879439 0 0 1
1.14062 0.867188 -0.880307 0 0 1
1.14062 0.875 -0.880619 0 0 1
1.14062 0.882812 -0.881016 0 0 1
1.14062 0.890625 -0.880892 0 0 1
1.14062 0.898438 -0.882754 0 0 1
1.14062 0.90625 -0.884642 0 0 1
1.14062 0.914062 -0.888189 0 0 1
1.14062 0.921875 -0.888296 0 0 1
1.14062 0.929688 -1.18521 0 0 1
1.14062 0.9375 -1.19091 0 0 1
1.14062 0.945312 -1.19255 0 0 1
1.14062 0.953125 -1.19262 0 0 1
1.14062 0.960938 -1.19193 0 0 1
1.14062 0.96875 -1.19051 0 0 1
1.14062 0.976562 -1.18836 0 0 1
1.14062 0.984375 -1.18457 0 0 1
1.14062 0.992188 -1.17855 0 0 1
1.14062 1 -0.876401 0 0 1
1.14062 1.00781 -0.872935 0 0 1
1.14062 1.01562 -0.86945 0 0 1
1.14062 1.02344 -0.862721 0 0 1
1.14062 1.03125 -0.853351 0 0 1
1.14062 1.03906 -0.844763 0 0 1
1.14062 1.04688 -0.833504 0 0 1
1.14844 0.679688 -0.640026 0 0 1
1.14844 0.6875 -0.654027 0 0 1
1.14844 0.695312 -0.667203 0 0 1
1.14844 0.703125 -0.67269 0 0 1
1.14844 0.710938 -0.680063 0 0 1
1.14844 0.71875 -0.683401 0 0 1
1.14844 0.726562 -0.688162 0 0 1
1.14844 0.734375 -0.692107 0 0 1
1.14844 0.742188 -0.694728 0 0 1
1.14844 0.75 -0.696919 0 0 1
1.14844 0.757812 -0.700396 0 0 1
1.14844 0.765625 -0.70392 0 0 1
1.14844 0.773438 -0.706299 0 0 1
1.14844 0.78125 -0.826418 0 0 1
1.14844 0.789062 -0.842775 0 0 1
1.14844 0.796875 -0.852865 0 0 1
1.14844 0.804688 -0.860248 0 0 1
1.14844 0.8125 -0.864956 0 0 1
1.14844 0.820312 -0.868245 0 0 1
1.14844 0.828125 -0.87176 0 0 1
1.14844 0.835938 -0.874229 0 0 1
1.14844 0.84375 -0.87527 0 0 1
1.14844 0.851562 -0.876782 0 0 1
1.14844 0.859375 -0.878947 0 0 1
1.14844 0.867188 -0.880641 0 0 1
1.14844 0.875 -0.881273 0 0 1
1.14844 0.882812 -0.882584 0 0 1
1.14844 0.890625 -0.882177 0 0 1
1.14844 0.898438 -0.883694 0 0 1
1.14844 0.90625 -0.886231 0 0 1
1.14844 0.914062 -0.885988 0 0 1
1.14844 0.921875 -1.18052 0 0 1
1.14844 0.929688 -1.19486 0 0 1
1.14844 0.9375 -1.19706 0 0 1
1.14844 0.945312 -1.1971 0 0 1
1.14844 0.953125 -1.19666 0 0 1
1.14844 0.960938 -1.19527 0 0 1
1.14844 0.96875 -1.19338 0 0 1
1.14844 0.976562 -1.189 0 0 1
1.14844 0.984375 -1.18464 0 0 1
1.14844 0.992188 -1.17504 0 0 1
1.14844 1 -0.873775 0 0 1
1.14844 1.00781 -0.869185 0 0 1
1.14844 1.01562 -0.864398 0 0 1
1.14844 1.02344 -0.853706 0 0 1
1.14844 1.03125 -0.842994 0 0 1
1.14844 1.03906 -0.822959 0 0 1
1.15625 0.671875 -0.639691 0 0 1
1.15625 0.679688 -0.658176 0 0 1
1.15625 0.6875 -0.665855 0 0 1
1.15625 0.695312 -0.671219 0 0 1
1.15625 0.703125 -0.678355 0 0 1
1.15625 0.710938 -0.683539 0 0 1
1.15625 0.71875 -0.686921 0 0 1
1.15625 0.726562 -0.690841 0 0 1
1.15625 0.734375 -0.69282 0 0 1
1.15625 0.742188 -0.696255 0 0 1
1.15625 0.75 -0.69836 0 0 1
1.15625 0.757812 -0.700454 0 0 1
1.15625 0.765625 -0.70377 0 0 1
1.15625 0.773438 -0.813652 0 0 1
1.15625 0.78125 -0.833112 0 0 1
1.15625 0.789062 -0.84625 0 0 1
1.15625 0.796875 -0.854875 0 0 1
1.15625 0.804688 -0.862247 0 0 1
1.15625 0.8125 -0.867834 0 0 1
1.15625 0.820312 -0.871182 0 0 1
1.15625 0.828125 -0.875135 0 0 1
1.15625 0.835938 -0.878105 0 0 1
1.15625 0.84375 -0.878369 0 0 1
1.15625 0.851562 -0.879928 0 0 1
1.15625 0.859375 -0.880295 0 0 1
1.15625 0.867188 -0.879973 0 0 1
1.15625 0.875 -0.880713 0 0 1
1.15625 0.882812 -0.882641 0 0 1
1.15625 0.890625 -0.882857 0 0 1
1.15625 0.898438 -0.883987 0 0 1
1.15625 0.90625 -0.88436 0 0 1
1.15625 0.914062 -0.884625 0 0 1
1.15625 0.921875 -1.19926 0 0 1
1.15625 0.929688 -1.20284 0 0 1
1.15625 0.9375 -1.20267 0 0 1
1.15625 0.945312 -1.20069 0 0 1
1.15625 0.953125 -1.19859 0 0 1
1.15625 0.960938 -1.19656 0 0 1
1.15625 0.96875 -1.19491 0 0 1
1.15625 0.976562 -1.19047 0 0 1
1.15625 0.984375 -1.18369 0 0 1
1.15625 0.992188 -0.873959 0 0 1
1.15625 1 -0.870042 0 0 1
1.15625 1.00781 -0.863279 0 0 1
1.15625 1.01562 -0.853068 0 0 1
1.15625 1.02344 -0.838344 0 0 1
1.16406 0.664062 -0.640784 0 0 1
1.16406 0.671875 -0.656525 0 0 1
1.16406 0.679688 -0.664698 0 0 1
1.16406 0.6875 -0.671688 0 0 1
1.16406 0.695312 -0.677001 0 0 1
1.16406 0.703125 -0.681998 0 0 1
1.16406 0.710938 -0.686891 0 0 1
1.16406 0.71875 -0.689227 0 0 1
1.16406 0.726562 -0.692706 0 0 1
1.16406 0.734375 -0.694837 0 0 1
1.16406 0.742188 -0.696607 0 0 1
1.16406 0.75 -0.699422 0 0 1
1.16406 0.757812 -0.701453 0 0 1
1.16406 0.765625 -0.805256 0 0 1
1.16406 0.773438 -0.828473 0 0 1
1.16406 0.78125 -0.841644 0 0 1
1.16406 0.789062 -0.850718 0 0 1
1.16406 0.796875 -0.858729 0 0 1
1.16406 0.804688 -0.864977 0 0 1
1.16406 0.8125 -0.870541 0 0 1
1.16406 0.820312 -0.873237 0 0 1
1.16406 0.828125 -0.877049 0 0 1
1.16406 0.835938 -0.879092 0 0 1
1.16406 0.84375 -0.881432 0 0 1
1.16406 0.851562 -0.881766 0 0 1
1.16406 0.859375 -0.88249 0 0 1
1.16406 0.867188 -0.882002 0 0 1
1.16406 0.875 -0.882041 0 0 1
1.16406 0.882812 -0.881344 0 0 1
1.16406 0.890625 -0.882838 0 0 1
1.16406 0.898438 -0.882633 0 0 1
1.16406 0.90625 -0.883295 0 0 1
1.16406 0.914062 -1.18642 0 0 1
1.16406 0.921875 -1.20425 0 0 1
1.16406 0.929688 -1.20678 0 0 1
1.16406 0.9375 -1.20678 0 0 1
1.16406 0.945312 -1.20483 0 0 1
1.16406 0.953125 -1.20216 0 0 1
1.16406 0.960938 -1.19895 0 0 1
1.16406 0.96875 -1.19584 0 0 1
1.16406 0.976562 -1.19101 0 0 1
1.16406 0.984375 -1.17778 0 0 1
1.16406 0.992188 -0.869328 0 0 1
1.16406 1 -0.865024 0 0 1
1.16406 1.00781 -0.855515 0 0 1
1.16406 1.01562 -0.842652 0 0 1
1.17188 0.65625 -0.641799 0 0 1
1.17188 0.664062 -0.657613 0 0 1
1.17188 0.671875 -0.6653 0 0 1
1.17188 0.679688 -0.670581 0 0 1
1.17188 0.6875 -0.675758 0 0 1
1.17188 0.695312 -0.680161 0 0 1
1.17188 0.703125 -0.684861 0 0 1
1.17188 0.710938 -0.688923 0 0 1
1.17188 0.71875 -0.69146 0 0 1
1.17188 0.726562 -0.69459 0 0 1
1.17188 0.734375 -0.696416 0 0 1
1.17188 0.742188 -0.69783 0 0 1
1.17188 0.75 -0.699365 0 0 1
1.17188 0.757812 -0.809177 0 0 1
1.17188 0.765625 -0.823622 0 0 1
1.17188 0.773438 -0.835159 0 0 1
1.17188 0.78125 -0.84618 0 0 1
1.17188 0.789062 -0.854058 0 0 1
1.17188 0.796875 -0.861298 0 0 1
1.17188 0.804688 -0.866166 0 0 1
1.17188 0.8125 -0.871143 0 0 1
1.17188 0.820312 -0.875504 0 0 1
1.17188 0.828125 -0.878949 0 0 1
1.17188 0.835938 -0.880453 0 0 1
1.17188 0.84375 -0.882156 0 0 1
1.17188 0.851562 -0.883449 0 0 1
1.17188 0.859375 -0.883593 0 0 1
1.17188 0.867188 -0.883273 0 0 1
1.17188 0.875 -0.883499 0 0 1
1.17188 0.882812 -0.882946 0 0 1
1.17188 0.890625 -0.882455 0 0 1
1.17188 0.898438 -0.882128 0 0 1
1.17188 0.90625 -0.881649 0 0 1
1.17188 0.914062 -1.20645 0 0 1
1.17188 0.921875 -1.20897 0 0 1
1.17188 0.929688 -1.20911 0 0 1
1.17188 0.9375 -1.20951 0 0 1
1.17188 0.945312 -1.20821 0 0 1
1.17188 0.953125 -1.20516 0 0 1
1.17188 0.960938 -1.20083 0 0 1
1.17188 0.96875 -1.19619 0 0 1
1.17188 0.976562 -1.19076 0 0 1
1.17188 0.984375 -0.867572 0 0 1
1.17188 0.992188 -0.862116 0 0 1
1.17188 1 -0.853653 0 0 1
1.17188 1.00781 -0.845108 0 0 1
1.17969 0.648438 -0.642853 0 0 1
1.17969 0.65625 -0.656318 0 0 1
1.17969 0.664062 -0.66627 0 0 1
1.17969 0.671875 -0.671426 0 0 1
1.17969 0.679688 -0.674224 0 0 1
1.17969 0.6875 -0.679123 0 0 1
1.17969 0.695312 -0.683141 0 0 1
1.17969 0.703125 -0.687424 0 0 1
1.17969 0.710938 -0.691033 0 0 1
1.17969 0.71875 -0.692918 0 0 1
1.17969 0.726562 -0.694838 0 0 1
1.17969 0.734375 -0.69648 0 0 1
1.17969 0.742188 -0.698042 0 0 1
1.17969 0.75 -0.810259 0 0 1
1.17969 0.757812 -0.824782 0 0 1
1.17969 0.765625 -0.835698 0 0 1
1.17969 0.773438 -0.844283 0 0 1
1.17969 0.78125 -0.852241 0 0 1
1.17969 0.789062 -0.859636 0 0 1
1.17969 0.796875 -0.863763 0 0 1
1.17969 0.804688 -0.868824 0 0 1
1.17969 0.8125 -0.873302 0 0 1
1.17969 0.820312 -0.876902 0 0 1
1.17969 0.828125 -0.879094 0 0 1
1.17969 0.835938 -0.881876 0 0 1
1.17969 0.84375 -0.883421 0 0 1
1.17969 0.851562 -0.884055 0 0 1
1.17969 0.859375 -0.884207 0 0 1
1.17969 0.867188 -0.884374 0 0 1
1.17969 0.875 -0.884278 0 0 1
1.17969 0.882812 -0.884004 0 0 1
1.17969 0.890625 -0.883679 0 0 1
1.17969 0.898438 -0.881994 0 0 1
1.17969 0.90625 -1.20085 0 0 1
1.17969 0.914062 -1.20987 0 0 1
1.17969 0.921875 -1.21102 0 0 1
1.17969 0.929688 -1.21174 0 0 1
1.17969 0.9375 -1.21088 0 0 1
1.17969 0.945312 -1.20982 0 0 1
1.17969 0.953125 -1.20735 0 0 1
1.17969 0.960938 -1.2014 0 0 1
1.17969 0.96875 -1.19601 0 0 1
1.17969 0.976562 -1.18623 0 0 1
1.17969 0.984375 -0.860421 0 0 1
1.17969 0.992188 -0.85241 0 0 1
1.17969 1 -0.835015 0 0 1
1.1875 0.640625 -0.648331 0 0 1
1.1875 0.648438 -0.65659 0 0 1
1.1875 0.65625 -0.664787 0 0 1
1.1875 0.664062 -0.669948 0 0 1
1.1875 0.671875 -0.674461 0 0 1
1.1875 0.679688 -0.67864 0 0 1
1.1875 0.6875 -0.682697 0 0 1
1.1875 0.695312 -0.68523 0 0 1
1.1875 0.703125 -0.68901 0 0 1
1.1875 0.710938 -0.691219 0 0 1
1.1875 0.71875 -0.694016 0 0 1
1.1875 0.726562 -0.695432 0 0 1
1.1875 0.734375 -0.792926 0 0 1
1.1875 0.742188 -0.81287 0 0 1
1.1875 0.75 -0.827211 0 0 1
1.1875 0.757812 -0.835542 0 0 1
1.1875 0.765625 -0.842746 0 0 1
1.1875 0.773438 -0.850504 0 0 1
1.1875 0.78125 -0.856096 0 0 1
1.1875 0.789062 -0.86132 0 0 1
1.1875 0.796875 -0.868173 0 0 1
1.1875 0.804688 -0.871014 0 0 1
1.1875 0.8125 -0.875002 0 0 1
1.1875 0.820312 -0.877452 0 0 1
1.1875 0.828125 -0.880206 0 0 1
1.1875 0.835938 -0.881709 0 0 1
1.1875 0.84375 -0.883474 0 0 1
1.1875 0.851562 -0.883886 0 0 1
1.1875 0.859375 -0.884658 0 0 1
1.1875 0.867188 -0.884496 0 0 1
1.1875 0.875 -0.884381 0 0 1
1.1875 0.882812 -0.884225 0 0 1
1.1875 0.890625 -0.883664 0 0 1
1.1875 0.898438 -1.20165 0 0 1
1.1875 0.90625 -1.20747 0 0 1
1.1875 0.914062 -1.2111 0 0 1
1.1875 0.921875 -1.21261 0 0 1
1.1875 0.929688 -1.21214 0 0 1
1.1875 0.9375 -1.21142 0 0 1
1.1875 0.945312 -1.21045 0 0 1
1.1875 0.953125 -1.20809 0 0 1
1.1875 0.960938 -1.20144 0 0 1
1.1875 0.96875 -1.19512 0 0 1
1.1875 0.976562 -0.85845 0 0 1
1.1875 0.984375 -0.850894 0 0 1
1.1875 0.992188 -0.824001 0 0 1
1.19531 0.632812 -0.644209 0 0 1
1.19531 0.640625 -0.657335 0 0 1
1.19531 0.648438 -0.662794 0 0 1
1.19531 0.65625 -0.670147 0 0 1
1.19531 0.664062 -0.672866 0 0 1
1.19531 0.671875 -0.678584 0 0 1
1.19531 0.679688 -0.680913 0 0 1
1.19531 0.6875 -0.683436 0 0 1
1.19531 0.695312 -0.686823 0 0 1
1.19531 0.703125 -0.689164 0 0 1
1.19531 0.710938 -0.692135 0 0 1
1.19531 0.71875 -0.693963 0 0 1
1.19531 0.726562 -0.796499 0 0 1
1.19531 0.734375 -0.819538 0 0 1
1.19531 0.742188 -0.82803 0 0 1
1.19531 0.75 -0.836953 0 0 1
1.19531 0.757812 -0.842795 0 0 1
1.19531 0.765625 -0.848798 0 0 1
1.19531 0.773438 -0.854497 0 0 1
1.19531 0.78125 -0.861528 0 0 1
1.19531 0.789062 -0.866365 0 0 1
1.19531 0.796875 -0.869243 0 0 1
1.19531 0.804688 -0.87332 0 0 1
1.19531 0.8125 -0.876761 0 0 1
1.19531 0.820312 -0.878752 0 0 1
1.19531 0.828125 -0.881161 0 0 1
1.19531 0.835938 -0.882338 0 0 1
1.19531 0.84375 -0.883105 0 0 1
1.19531 0.851562 -0.884225 0 0 1
1.19531 0.859375 -0.884549 0 0 1
1.19531 0.867188 -0.884385 0 0 1
1.19531 0.875 -0.883689 0 0 1
1.19531 0.882812 -1.18954 0 0 1
1.19531 0.890625 -1.20495 0 0 1
1.19531 0.898438 -1.20886 0 0 1
1.19531 0.90625 -1.21289 0 0 1
1.19531 0.914062 -1.21278 0 0 1
1.19531 0.921875 -1.21337 0 0 1
1.19531 0.929688 -1.21306 0 0 1
1.19531 0.9375 -1.21263 0 0 1
1.19531 0.945312 -1.21124 0 0 1
1.19531 0.953125 -1.2082 0 0 1
1.19531 0.960938 -1.20303 0 0 1
1.19531 0.96875 -1.19083 0 0 1
1.19531 0.976562 -0.848783 0 0 1
1.19531 0.984375 -0.811488 0 0 1
1.20312 0.625 -0.645079 0 0 1
1.20312 0.632812 -0.655435 0 0 1
1.20312 0.640625 -0.663158 0 0 1
1.20312 0.648438 -0.668193 0 0 1
1.20312 0.65625 -0.673082 0 0 1
1.20312 0.664062 -0.676788 0 0 1
1.20312 0.671875 -0.679252 0 0 1
1.20312 0.679688 -0.682614 0 0 1
1.20312 0.6875 -0.684698 0 0 1
1.20312 0.695312 -0.686839 0 0 1
1.20312 0.703125 -0.690013 0 0 1
1.20312 0.710938 -0.691868 0 0 1
1.20312 0.71875 -0.803309 0 0 1
1.20312 0.726562 -0.818246 0 0 1
1.20312 0.734375 -0.829558 0 0 1
1.20312 0.742188 -0.83785 0 0 1
1.20312 0.75 -0.843675 0 0 1
1.20312 0.757812 -0.849312 0 0 1
1.20312 0.765625 -0.8547 0 0 1
1.20312 0.773438 -0.859753 0 0 1
1.20312 0.78125 -0.864778 0 0 1
1.20312 0.789062 -0.86923 0 0 1
1.20312 0.796875 -0.872017 0 0 1
1.20312 0.804688 -0.875161 0 0 1
1.20312 0.8125 -0.877421 0 0 1
1.20312 0.820312 -0.879658 0 0 1
1.20312 0.828125 -0.881459 0 0 1
1.20312 0.835938 -0.882238 0 0 1
1.20312 0.84375 -0.883206 0 0 1
1.20312 0.851562 -0.883365 0 0 1
1.20312 0.859375 -0.883449 0 0 1
1.20312 0.867188 -0.883248 0 0 1
1.20312 0.875 -1.18783 0 0 1
1.20312 0.882812 -1.20116 0 0 1
1.20312 0.890625 -1.2098 0 0 1
1.20312 0.898438 -1.21375 0 0 1
1.20312 0.90625 -1.21463 0 0 1
1.20312 0.914062 -1.21482 0 0 1
1.20312 0.921875 -1.21448 0 0 1
1.20312 0.929688 -1.21327 0 0 1
1.20312 0.9375 -1.21328 0 0 1
1.20312 0.945312 -1.21111 0 0 1
1.20312 0.953125 -1.2081 0 0 1
1.20312 0.960938 -1.19947 0 0 1
1.20312 0.96875 -0.844398 0 0 1
1.20312 0.976562 -0.820893 0 0 1
1.21094 0.617188 -0.64096 0 0 1
1.21094 0.625 -0.654036 0 0 1
1.21094 0.632812 -0.661587 0 0 1
1.21094 0.640625 -0.666743 0 0 1
1.21094 0.648438 -0.671002 0 0 1
1.21094 0.65625 -0.674919 0 0 1
1.21094 0.664062 -0.677285 0 0 1
1.21094 0.671875 -0.680558 0 0 1
1.21094 0.679688 -0.682633 0 0 1
1.21094 0.6875 -0.684976 0 0 1
1.21094 0.695312 -0.687615 0 0 1
1.21094 0.703125 -0.689145 0 0 1
1.21094 0.710938 -0.810691 0 0 1
1.21094 0.71875 -0.822056 0 0 1
1.21094 0.726562 -0.833212 0 0 1
1.21094 0.734375 -0.839131 0 0 1
1.21094 0.742188 -0.844909 0 0 1
1.21094 0.75 -0.850429 0 0 1
1.21094 0.757812 -0.855695 0 0 1
1.21094 0.765625 -0.85852 0 0 1
1.21094 0.773438 -0.863877 0 0 1
1.21094 0.78125 -0.867317 0 0 1
1.21094 0.789062 -0.871831 0 0 1
1.21094 0.796875 -0.873966 0 0 1
1.21094 0.804688 -0.877159 0 0 1
1.21094 0.8125 -0.878896 0 0 1
1.21094 0.820312 -0.880036 0 0 1
1.21094 0.828125 -0.881462 0 0 1
1.21094 0.835938 -0.882388 0 0 1
1.21094 0.84375 -0.882663 0 0 1
1.21094 0.851562 -0.882884 0 0 1
1.21094 0.859375 -0.882226 0 0 1
1.21094 0.867188 -0.881694 0 0 1
1.21094 0.875 -1.20351 0 0 1
1.21094 0.882812 -1.20848 0 0 1
1.21094 0.890625 -1.21405 0 0 1
1.21094 0.898438 -1.2153 0 0 1
1.21094 0.90625 -1.21622 0 0 1
1.21094 0.914062 -1.21701 0 0 1
1.21094 0.921875 -1.21633 0 0 1
1.21094 0.929688 -1.2155 0 0 1
1.21094 0.9375 -1.21403 0 0 1
1.21094 0.945312 -1.21097 0 0 1
1.21094 0.953125 -1.20715 0 0 1
1.21094 0.960938 -1.19625 0 0 1
1.21094 0.96875 -0.823247 0 0 1
1.21875 0.609375 -0.639075 0 0 1
1.21875 0.617188 -0.651929 0 0 1
1.21875 0.625 -0.659741 0 0 1
1.21875 0.632812 -0.664869 0 0 1
1.21875 0.640625 -0.669327 0 0 1
1.21875 0.648438 -0.673502 0 0 1
1.21875 0.65625 -0.675048 0 0 1
1.21875 0.664062 -0.678448 0 0 1
1.21875 0.671875 -0.680538 0 0 1
1.21875 0.679688 -0.682776 0 0 1
1.21875 0.6875 -0.684489 0 0 1
1.21875 0.695312 -0.800791 0 0 1
1.21875 0.703125 -0.81525 0 0 1
1.21875 0.710938 -0.824182 0 0 1
1.21875 0.71875 -0.831883 0 0 1
1.21875 0.726562 -0.837756 0 0 1
1.21875 0.734375 -0.845562 0 0 1
1.21875 0.742188 -0.850938 0 0 1
1.21875 0.75 -0.855947 0 0 1
1.21875 0.757812 -0.860681 0 0 1
1.21875 0.765625 -0.864349 0 0 1
1.21875 0.773438 -0.86656 0 0 1
1.21875 0.78125 -0.870316 0 0 1
1.21875 0.789062 -0.872754 0 0 1
1.21875 0.796875 -0.875739 0 0 1
1.21875 0.804688 -0.877521 0 0 1
1.21875 0.8125 -0.879469 0 0 1
1.21875 0.820312 -0.880397 0 0 1
1.21875 0.828125 -0.880916 0 0 1
1.21875 0.835938 -0.881602 0 0 1
1.21875 0.84375 -0.881862 0 0 1
1.21875 0.851562 -0.881596 0 0 1
1.21875 0.859375 -0.881341 0 0 1
1.21875 0.867188 -1.1958 0 0 1
1.21875 0.875 -1.20717 0 0 1
1.21875 0.882812 -1.21453 0 0 1
1.21875 0.890625 -1.21537 0 0 1
1.21875 0.898438 -1.21733 0 0 1
1.21875 0.90625 -1.21872 0 0 1
1.21875 0.914062 -1.21862 0 0 1
1.21875 0.921875 -1.21775 0 0 1
1.21875 0.929688 -1.21668 0 0 1
1.21875 0.9375 -1.21405 0 0 1
1.21875 0.945312 -1.21094 0 0 1
1.21875 0.953125 -1.20163 0 0 1
1.21875 0.960938 -0.819111 0 0 1
1.22656 0.601562 -0.632196 0 0 1
1.22656 0.609375 -0.649924 0 0 1
1.22656 0.617188 -0.657666 0 0 1
1.22656 0.625 -0.663852 0 0 1
1.22656 0.632812 -0.667288 0 0 1
1.22656 0.640625 -0.671358 0 0 1
1.22656 0.648438 -0.673693 0 0 1
1.22656 0.65625 -0.676154 0 0 1
1.22656 0.664062 -0.678882 0 0 1
1.22656 0.671875 -0.680583 0 0 1
1.22656 0.679688 -0.682381 0 0 1
1.22656 0.6875 -0.810423 0 0 1
1.22656 0.695312 -0.81928 0 0 1
1.22656 0.703125 -0.828194 0 0 1
1.22656 0.710938 -0.835642 0 0 1
1.22656 0.71875 -0.841386 0 0 1
1.22656 0.726562 -0.84686 0 0 1
1.22656 0.734375 -0.852146 0 0 1
1.22656 0.742188 -0.855329 0 0 1
1.22656 0.75 -0.859122 0 0 1
1.22656 0.757812 -0.863496 0 0 1
1.22656 0.765625 -0.866532 0 0 1
1.22656 0.773438 -0.869337 0 0 1
1.22656 0.78125 -0.872582 0 0 1
1.22656 0.789062 -0.874544 0 0 1
1.22656 0.796875 -0.875956 0 0 1
1.22656 0.804688 -0.877679 0 0 1
1.22656 0.8125 -0.879167 0 0 1
1.22656 0.820312 -0.880291 0 0 1
1.22656 0.828125 -0.88071 0 0 1
1.22656 0.835938 -0.88068 0 0 1
1.22656 0.84375 -0.880653 0 0 1
1.22656 0.851562 -0.879919 0 0 1
1.22656 0.859375 -1.19397 0 0 1
1.22656 0.867188 -1.21158 0 0 1
1.22656 0.875 -1.21085 0 0 1
1.22656 0.882812 -1.21588 0 0 1
1.22656 0.890625 -1.21922 0 0 1
1.22656 0.898438 -1.21979 0 0 1
1.22656 0.90625 -1.21987 0 0 1
1.22656 0.914062 -1.22086 0 0 1
1.22656 0.921875 -1.21996 0 0 1
1.22656 0.929688 -1.21797 0 0 1
1.22656 0.9375 -1.2142 0 0 1
1.22656 0.945312 -1.21033 0 0 1
1.22656 0.953125 -1.19988 0 0 1
1.23438 0.59375 -0.626477 0 0 1
1.23438 0.601562 -0.645797 0 0 1
1.23438 0.609375 -0.654636 0 0 1
1.23438 0.617188 -0.661298 0 0 1
1.23438 0.625 -0.664439 0 0 1
1.23438 0.632812 -0.668872 0 0 1
1.23438 0.640625 -0.671429 0 0 1
1.23438 0.648438 -0.674454 0 0 1
1.23438 0.65625 -0.676456 0 0 1
1.23438 0.664062 -0.678497 0 0 1
1.23438 0.671875 -0.800005 0 0 1
1.23438 0.679688 -0.814579 0 0 1
1.23438 0.6875 -0.823323 0 0 1
1.23438 0.695312 -0.831849 0 0 1
1.23438 0.703125 -0.837377 0 0 1
1.23438 0.710938 -0.842722 0 0 1
1.23438 0.71875 -0.845536 0 0 1
1.23438 0.726562 -0.850781 0 0 1
1.23438 0.734375 -0.855615 0 0 1
1.23438 0.742188 -0.860542 0 0 1
1.23438 0.75 -0.862796 0 0 1
1.23438 0.757812 -0.865615 0 0 1
1.23438 0.765625 -0.868421 0 0 1
1.23438 0.773438 -0.871679 0 0 1
1.23438 0.78125 -0.873072 0 0 1
1.23438 0.789062 -0.875579 0 0 1
1.23438 0.796875 -0.876742 0 0 1
1.23438 0.804688 -0.87788 0 0 1
1.23438 0.8125 -0.87834 0 0 1
1.23438 0.820312 -0.879102 0 0 1
1.23438 0.828125 -0.879774 0 0 1
1.23438 0.835938 -0.879299 0 0 1
1.23438 0.84375 -0.879433 0 0 1
1.23438 0.851562 -1.20167 0 0 1
1.23438 0.859375 -1.20241 0 0 1
1.23438 0.867188 -1.18798 0 0 1
1.23438 0.875 -1.18513 0 0 1
1.23438 0.882812 -1.21928 0 0 1
1.23438 0.890625 -1.2207 0 0 1
1.23438 0.898438 -1.22383 0 0 1
1.23438 0.90625 -1.22371 0 0 1
1.23438 0.914062 -1.22262 0 0 1
1.23438 0.921875 -1.22032 0 0 1
1.23438 0.929688 -1.2188 0 0 1
1.23438 0.9375 -1.21479 0 0 1
1.23438 0.945312 -1.21028 0 0 1
1.23438 0.953125 -1.19879 0 0 1
1.24219 0.578125 -0.602781 0 0 1
1.24219 0.585938 -0.623754 0 0 1
1.24219 0.59375 -0.643804 0 0 1
1.24219 0.601562 -0.651631 0 0 1
1.24219 0.609375 -0.658598 0 0 1
1.24219 0.617188 -0.66346 0 0 1
1.24219 0.625 -0.666332 0 0 1
1.24219 0.632812 -0.669608 0 0 1
1.24219 0.640625 -0.671918 0 0 1
1.24219 0.648438 -0.674158 0 0 1
1.24219 0.65625 -0.675656 0 0 1
1.24219 0.664062 -0.804283 0 0 1
1.24219 0.671875 -0.818617 0 0 1
1.24219 0.679688 -0.826966 0 0 1
1.24219 0.6875 -0.832763 0 0 1
1.24219 0.695312 -0.838146 0 0 1
1.24219 0.703125 -0.843341 0 0 1
1.24219 0.710938 -0.84643 0 0 1
1.24219 0.71875 -0.850879 0 0 1
1.24219 0.726562 -0.855437 0 0 1
1.24219 0.734375 -0.857719 0 0 1
1.24219 0.742188 -0.861763 0 0 1
1.24219 0.75 -0.865566 0 0 1
1.24219 0.757812 -0.868733 0 0 1
1.24219 0.765625 -0.870071 0 0 1
1.24219 0.773438 -0.872546 0 0 1
1.24219 0.78125 -0.874075 0 0 1
1.24219 0.789062 -0.875767 0 0 1
1.24219 0.796875 -0.876604 0 0 1
1.24219 0.804688 -0.877939 0 0 1
1.24219 0.8125 -0.878186 0 0 1
1.24219 0.820312 -0.877993 0 0 1
1.24219 0.828125 -0.878188 0 0 1
1.24219 0.835938 -0.877677 0 0 1
1.24219 0.84375 -1.21024 0 0 1
1.24219 0.851562 -1.20938 0 0 1
1.24219 0.859375 -1.19198 0 0 1
1.24219 0.867188 -1.18988 0 0 1
1.24219 0.875 -1.18881 0 0 1
1.24219 0.882812 -1.18834 0 0 1
1.24219 0.890625 -1.2255 0 0 1
1.24219 0.898438 -1.22596 0 0 1
1.24219 0.90625 -1.22532 0 0 1
1.24219 0.914062 -1.22456 0 0 1
1.24219 0.921875 -1.22149 0 0 1
1.24219 0.929688 -1.22139 0 0 1
1.24219 0.9375 -1.21494 0 0 1
1.24219 0.945312 -1.20664 0 0 1
1.24219 0.953125 -1.19983 0 0 1
1.25 0.570312 -0.603816 0 0 1
1.25 0.578125 -0.624552 0 0 1
1.25 0.585938 -0.642239 0 0 1
1.25 0.59375 -0.6481 0 0 1
1.25 0.601562 -0.65554 0 0 1
1.25 0.609375 -0.660899 0 0 1
1.25 0.617188 -0.663769 0 0 1
1.25 0.625 -0.66732 0 0 1
1.25 0.632812 -0.669383 0 0 1
1.25 0.640625 -0.671506 0 0 1
1.25 0.648438 -0.673656 0 0 1
1.25 0.65625 -0.809553 0 0 1
1.25 0.664062 -0.822609 0 0 1
1.25 0.671875 -0.828421 0 0 1
1.25 0.679688 -0.834053 0 0 1
1.25 0.6875 -0.839514 0 0 1
1.25 0.695312 -0.844287 0 0 1
1.25 0.703125 -0.84684 0 0 1
1.25 0.710938 -0.851051 0 0 1
1.25 0.71875 -0.853919 0 0 1
1.25 0.726562 -0.857907 0 0 1
1.25 0.734375 -0.862 0 0 1
1.25 0.742188 -0.864015 0 0 1
1.25 0.75 -0.86734 0 0 1
1.25 0.757812 -0.869348 0 0 1
1.25 0.765625 -0.871453 0 0 1
1.25 0.773438 -0.872993 0 0 1
1.25 0.78125 -0.874423 0 0 1
1.25 0.789062 -0.875649 0 0 1
1.25 0.796875 -0.876147 0 0 1
1.25 0.804688 -0.876291 0 0 1
1.25 0.8125 -0.876497 0 0 1
1.25 0.820312 -0.876132 0 0 1
1.25 0.828125 -1.21251 0 0 1
1.25 0.835938 -1.21451 0 0 1
1.25 0.84375 -1.20988 0 0 1
1.25 0.851562 -1.19694 0 0 1
1.25 0.859375 -1.19421 0 0 1
1.25 0.867188 -1.19299 0 0 1
1.25 0.875 -1.19195 0 0 1
1.25 0.882812 -1.19456 0 0 1
1.25 0.890625 -1.1946 0 0 1
1.25 0.898438 -1.22901 0 0 1
1.25 0.90625 -1.22777 0 0 1
1.25 0.914062 -1.22648 0 0 1
1.25 0.921875 -1.22325 0 0 1
1.25 0.929688 -1.22025 0 0 1
1.25 0.9375 -1.21683 0 0 1
1.25 0.945312 -1.20946 0 0 1
1.25 0.953125 -1.19216 0 0 1
1.25781 0.5625 -0.60481 0 0 1
1.25781 0.570312 -0.621019 0 0 1
1.25781 0.578125 -0.639352 0 0 1
1.25781 0.585938 -0.647191 0 0 1
1.25781 0.59375 -0.654016 0 0 1
1.25781 0.601562 -0.658134 0 0 1
1.25781 0.609375 -0.661246 0 0 1
1.25781 0.617188 -0.664856 0 0 1
1.25781 0.625 -0.667179 0 0 1
1.25781 0.632812 -0.669406 0 0 1
1.25781 0.640625 -0.670964 0 0 1
1.25781 0.648438 -0.813678 0 0 1
1.25781 0.65625 -0.824644 0 0 1
1.25781 0.664062 -0.830104 0 0 1
1.25781 0.671875 -0.83534 0 0 1
1.25781 0.679688 -0.840618 0 0 1
1.25781 0.6875 -0.843274 0 0 1
1.25781 0.695312 -0.848617 0 0 1
1.25781 0.703125 -0.850516 0 0 1
1.25781 0.710938 -0.854172 0 0 1
1.25781 0.71875 -0.857768 0 0 1
1.25781 0.726562 -0.859933 0 0 1
1.25781 0.734375 -0.862244 0 0 1
1.25781 0.742188 -0.86583 0 0 1
1.25781 0.75 -0.868213 0 0 1
1.25781 0.757812 -0.87028 0 0 1
1.25781 0.765625 -0.871454 0 0 1
1.25781 0.773438 -0.872698 0 0 1
1.25781 0.78125 -0.87389 0 0 1
1.25781 0.789062 -0.875152 0 0 1
1.25781 0.796875 -0.874957 0 0 1
1.25781 0.804688 -0.875202 0 0 1
1.25781 0.8125 -0.874632 0 0 1
1.25781 0.820312 -0.874657 0 0 1
1.25781 0.828125 -1.21034 0 0 1
1.25781 0.835938 -1.20279 0 0 1
1.25781 0.84375 -1.20381 0 0 1
1.25781 0.851562 -1.20139 0 0 1
1.25781 0.859375 -1.20411 0 0 1
1.25781 0.867188 -1.20009 0 0 1
1.25781 0.875 -1.19915 0 0 1
1.25781 0.882812 -1.19888 0 0 1
1.25781 0.890625 -1.19843 0 0 1
1.25781 0.898438 -1.23042 0 0 1
1.25781 0.90625 -1.22938 0 0 1
1.25781 0.914062 -1.22816 0 0 1
1.25781 0.921875 -1.22483 0 0 1
1.25781 0.929688 -1.22038 0 0 1
1.25781 0.9375 -1.2166 0 0 1
1.25781 0.945312 -1.20654 0 0 1
1.25781 0.953125 -1.19822 0 0 1
1.26562 0.546875 -0.592233 0 0 1
1.26562 0.554688 -0.605474 0 0 1
1.26562 0.5625 -0.62527 0 0 1
1.26562 0.570312 -0.635461 0 0 1
1.26562 0.578125 -0.64503 0 0 1
1.26562 0.585938 -0.652287 0 0 1
1.26562 0.59375 -0.655578 0 0 1
1.26562 0.601562 -0.659854 0 0 1
1.26562 0.609375 -0.662522 0 0 1
1.26562 0.617188 -0.664819 0 0 1
1.26562 0.625 -0.667457 0 0 1
1.26562 0.632812 -0.668939 0 0 1
1.26562 0.640625 -0.814604 0 0 1
1.26562 0.648438 -0.825407 0 0 1
1.26562 0.65625 -0.830992 0 0 1
1.26562 0.664062 -0.83612 0 0 1
1.26562 0.671875 -0.840965 0 0 1
1.26562 0.679688 -0.844628 0 0 1
1.26562 0.6875 -0.847468 0 0 1
1.26562 0.695312 -0.849997 0 0 1
1.26562 0.703125 -0.853501 0 0 1
1.26562 0.710938 -0.8552 0 0 1
1.26562 0.71875 -0.858617 0 0 1
1.26562 0.726562 -0.861752 0 0 1
1.26562 0.734375 -0.863581 0 0 1
1.26562 0.742188 -0.865738 0 0 1
1.26562 0.75 -0.868096 0 0 1
1.26562 0.757812 -0.869957 0 0 1
1.26562 0.765625 -0.870824 0 0 1
1.26562 0.773438 -0.872229 0 0 1
1.26562 0.78125 -0.87269 0 0 1
1.26562 0.789062 -0.873471 0 0 1
1.26562 0.796875 -0.873671 0 0 1
1.26562 0.804688 -0.872873 0 0 1
1.26562 0.8125 -0.872495 0 0 1
1.26562 0.820312 -1.21017 0 0 1
1.26562 0.828125 -1.20468 0 0 1
1.26562 0.835938 -1.20871 0 0 1
1.26562 0.84375 -1.20906 0 0 1
1.26562 0.851562 -1.21029 0 0 1
1.26562 0.859375 -1.20785 0 0 1
1.26562 0.867188 -1.20579 0 0 1
1.26562 0.875 -1.20311 0 0 1
1.26562 0.882812 -1.20095 0 0 1
1.26562 0.890625 -1.20093 0 0 1
1.26562 0.898438 -1.20142 0 0 1
1.26562 0.90625 -1.22988 0 0 1
1.26562 0.914062 -1.18936 0 0 1
1.26562 0.921875 -1.22561 0 0 1
1.26562 0.929688 -1.22046 0 0 1
1.26562 0.9375 -1.21375 0 0 1
1.26562 0.945312 -1.17952 0 0 1
1.26562 0.953125 -1.18599 0 0 1
1.27344 0.539062 -0.600861 0 0 1
1.27344 0.546875 -0.614156 0 0 1
1.27344 0.554688 -0.626259 0 0 1
1.27344 0.5625 -0.634076 0 0 1
1.27344 0.570312 -0.643473 0 0 1
1.27344 0.578125 -0.649279 0 0 1
1.27344 0.585938 -0.652765 0 0 1
1.27344 0.59375 -0.657162 0 0 1
1.27344 0.601562 -0.659798 0 0 1
1.27344 0.609375 -0.662734 0 0 1
1.27344 0.617188 -0.66508 0 0 1
1.27344 0.625 -0.800084 0 0 1
1.27344 0.632812 -0.818012 0 0 1
1.27344 0.640625 -0.825912 0 0 1
1.27344 0.648438 -0.832615 0 0 1
1.27344 0.65625 -0.837262 0 0 1
1.27344 0.664062 -0.841847 0 0 1
1.27344 0.671875 -0.845267 0 0 1
1.27344 0.679688 -0.847116 0 0 1
1.27344 0.6875 -0.850469 0 0 1
1.27344 0.695312 -0.851987 0 0 1
1.27344 0.703125 -0.854726 0 0 1
1.27344 0.710938 -0.856882 0 0 1
1.27344 0.71875 -0.85964 0 0 1
1.27344 0.726562 -0.862151 0 0 1
1.27344 0.734375 -0.8643 0 0 1
1.27344 0.742188 -0.866292 0 0 1
1.27344 0.75 -0.8677 0 0 1
1.27344 0.757812 -0.869394 0 0 1
1.27344 0.765625 -0.870266 0 0 1
1.27344 0.773438 -0.870741 0 0 1
1.27344 0.78125 -0.87112 0 0 1
1.27344 0.789062 -0.870589 0 0 1
1.27344 0.796875 -0.870837 0 0 1
1.27344 0.804688 -0.870612 0 0 1
1.27344 0.8125 -1.20485 0 0 1
1.27344 0.820312 -1.20559 0 0 1
1.27344 0.828125 -1.20872 0 0 1
1.27344 0.835938 -1.21185 0 0 1
1.27344 0.84375 -1.21139 0 0 1
1.27344 0.851562 -1.21429 0 0 1
1.27344 0.859375 -1.21156 0 0 1
1.27344 0.867188 -1.2089 0 0 1
1.27344 0.875 -1.20859 0 0 1
1.27344 0.882812 -1.20667 0 0 1
1.27344 0.890625 -1.20574 0 0 1
1.27344 0.898438 -1.2293 0 0 1
1.27344 0.90625 -1.23014 0 0 1
1.27344 0.914062 -1.20069 0 0 1
1.27344 0.921875 -1.22281 0 0 1
1.27344 0.929688 -1.18238 0 0 1
1.27344 0.9375 -1.17838 0 0 1
1.27344 0.945312 -1.20266 0 0 1
1.27344 0.953125 -1.18782 0 0 1
1.28125 0.523438 -0.597709 0 0 1
1.28125 0.53125 -0.607149 0 0 1
1.28125 0.539062 -0.621753 0 0 1
1.28125 0.546875 -0.627232 0 0 1
1.28125 0.554688 -0.63483 0 0 1
1.28125 0.5625 -0.640039 0 0 1
1.28125 0.570312 -0.64658 0 0 1
1.28125 0.578125 -0.651753 0 0 1
1.28125 0.585938 -0.654314 0 0 1
1.28125 0.59375 -0.657032 0 0 1
1.28125 0.601562 -0.660556 0 0 1
1.28125 0.609375 -0.662262 0 0 1
1.28125 0.617188 -0.806339 0 0 1
1.28125 0.625 -0.816296 0 0 1
1.28125 0.632812 -0.827095 0 0 1
1.28125 0.640625 -0.83233 0 0 1
1.28125 0.648438 -0.83714 0 0 1
1.28125 0.65625 -0.840307 0 0 1
1.28125 0.664062 -0.843994 0 0 1
1.28125 0.671875 -0.846434 0 0 1
1.28125 0.679688 -0.849369 0 0 1
1.28125 0.6875 -0.851984 0 0 1
1.28125 0.695312 -0.853453 0 0 1
1.28125 0.703125 -0.855739 0 0 1
1.28125 0.710938 -0.857752 0 0 1
1.28125 0.71875 -0.859235 0 0 1
1.28125 0.726562 -0.861979 0 0 1
1.28125 0.734375 -0.863455 0 0 1
1.28125 0.742188 -0.865517 0 0 1
1.28125 0.75 -0.867453 0 0 1
1.28125 0.757812 -0.867787 0 0 1
1.28125 0.765625 -0.86829 0 0 1
1.28125 0.773438 -0.868885 0 0 1
1.28125 0.78125 -0.8686 0 0 1
1.28125 0.789062 -0.868982 0 0 1
1.28125 0.796875 -0.867667 0 0 1
1.28125 0.804688 -0.866382 0 0 1
1.28125 0.8125 -1.20597 0 0 1
1.28125 0.820312 -1.20458 0 0 1
