0.976562 1.08594 1.69121 0 0 1
0.976562 1.09375 1.69844 0 0 1
0.976562 1.10156 1.70474 0 0 1
0.976562 1.10938 1.7152 0 0 1
0.976562 1.11719 1.72924 0 0 1
0.976562 1.125 1.739 0 0 1
0.976562 1.13281 1.75145 0 0 1
0.976562 1.14062 1.90957 0 0 1
0.976562 1.14844 1.91576 0 0 1
0.976562 1.15625 1.92202 0 0 1
0.976562 1.16406 1.92933 0 0 1
0.976562 1.17188 1.93852 0 0 1
0.976562 1.17969 1.94747 0 0 1
0.976562 1.1875 1.95503 0 0 1
0.976562 1.19531 1.96541 0 0 1
0.976562 1.20312 1.97342 0 0 1
0.976562 1.21094 1.98617 0 0 1
0.984375 0.921875 1.99602 0 0 1
0.984375 0.929688 1.98829 0 0 1
0.984375 0.9375 1.98166 0 0 1
0.984375 0.945312 1.97762 0 0 1
0.984375 0.953125 1.97117 0 0 1
0.984375 0.960938 1.96082 0 0 1
0.984375 0.96875 1.95375 0 0 1
0.984375 0.976562 1.94642 0 0 1
0.984375 0.984375 1.94278 0 0 1
0.984375 0.992188 1.93729 0 0 1
0.984375 1 1.93415 0 0 1
0.984375 1.00781 1.69035 0 0 1
0.984375 1.01562 1.68381 0 0 1
0.984375 1.02344 1.68003 0 0 1
0.984375 1.03125 1.67617 0 0 1
0.984375 1.03906 1.67309 0 0 1
0.984375 1.04688 1.67149 0 0 1
0.984375 1.05469 1.67097 0 0 1
0.984375 1.0625 1.67196 0 0 1
0.984375 1.07031 1.67727 0 0 1
0.984375 1.07812 1.68164 0 0 1
0.984375 1.08594 1.68912 0 0 1
0.984375 1.09375 1.69998 0 0 1
0.984375 1.10156 1.70938 0 0 1
0.984375 1.10938 1.72919 0 0 1
0.984375 1.11719 1.74562 0 0 1
0.984375 1.125 1.90864 0 0 1
0.984375 1.13281 1.91235 0 0 1
0.984375 1.14062 1.91635 0 0 1
0.984375 1.14844 1.92563 0 0 1
0.984375 1.15625 1.93256 0 0 1
0.984375 1.16406 1.94322 0 0 1
0.984375 1.17188 1.95263 0 0 1
0.984375 1.17969 1.96345 0 0 1
0.984375 1.1875 1.9719 0 0 1
0.984375 1.19531 1.98154 0 0 1
0.984375 1.20312 1.99476 0 0 1
0.992188 0.898438 1.99746 0 0 1
0.992188 0.90625 1.99461 0 0 1
0.992188 0.914062 1.9873 0 0 1
0.992188 0.921875 1.97898 0 0 1
0.992188 0.929688 1.97503 0 0 1
0.992188 0.9375 1.96723 0 0 1
0.992188 0.945312 1.96105 0 0 1
0.992188 0.953125 1.95438 0 0 1
0.992188 0.960938 1.95097 0 0 1
0.992188 0.96875 1.94459 0 0 1
0.992188 0.976562 1.93883 0 0 1
0.992188 0.984375 1.93581 0 0 1
0.992188 0.992188 1.93089 0 0 1
0.992188 1 1.68908 0 0 1
0.992188 1.00781 1.68115 0 0 1
0.992188 1.01562 1.67665 0 0 1
0.992188 1.02344 1.67285 0 0 1
0.992188 1.03125 1.669 0 0 1
0.992188 1.03906 1.66699 0 0 1
0.992188 1.04688 1.66706 0 0 1
0.992188 1.05469 1.66783 0 0 1
0.992188 1.0625 1.6702 0 0 1
0.992188 1.07031 1.67373 0 0 1
0.992188 1.07812 1.68097 0 0 1
0.992188 1.08594 1.69058 0 0 1
0.992188 1.09375 1.70034 0 0 1
0.992188 1.10156 1.74141 0 0 1
0.992188 1.10938 1.75238 0 0 1
0.992188 1.11719 1.91112 0 0 1
0.992188 1.125 1.91468 0 0 1
0.992188 1.13281 1.91872 0 0 1
0.992188 1.14062 1.92602 0 0 1
0.992188 1.14844 1.93412 0 0 1
0.992188 1.15625 1.94653 0 0 1
0.992188 1.16406 1.95724 0 0 1
0.992188 1.17188 1.96663 0 0 1
0.992188 1.17969 1.97735 0 0 1
0.992188 1.1875 1.986 0 0 1
0.992188 1.19531 1.99963 0 0 1
1 0.875 1.99749 0 0 1
1 0.882812 1.99421 0 0 1
1 0.890625 1.98757 0 0 1
1 0.898438 1.98334 0 0 1
1 0.90625 1.97999 0 0 1
1 0.914062 1.9734 0 0 1
1 0.921875 1.96378 0 0 1
1 0.929688 1.95726 0 0 1
1 0.9375 1.95186 0 0 1
1 0.945312 1.94632 0 0 1
1 0.953125 1.94315 0 0 1
1 0.960938 1.9382 0 0 1
1 0.96875 1.93497 0 0 1
1 0.976562 1.93154 0 0 1
1 0.984375 1.9289 0 0 1
1 0.992188 1.69726 0 0 1
1 1 1.68069 0 0 1
1 1.00781 1.674 0 0 1
1 1.01562 1.66974 0 0 1
1 1.02344 1.66582 0 0 1
1 1.03125 1.66363 0 0 1
1 1.03906 1.66336 0 0 1
1 1.04688 1.66303 0 0 1
1 1.05469 1.66469 0 0 1
1 1.0625 1.6667 0 0 1
1 1.07031 1.67486 0 0 1
1 1.07812 1.68114 0 0 1
1 1.08594 1.69139 0 0 1
1 1.09375 1.74376 0 0 1
1 1.10156 1.91001 0 0 1
1 1.10938 1.9133 0 0 1
1 1.11719 1.9157 0 0 1
1 1.125 1.91933 0 0 1
1 1.13281 1.92715 0 0 1
1 1.14062 1.93623 0 0 1
1 1.14844 1.94731 0 0 1
1 1.15625 1.96056 0 0 1
1 1.16406 1.97146 0 0 1
1 1.17188 1.9789 0 0 1
1 1.17969 1.98955 0 0 1
1.00781 0.859375 1.99826 0 0 1
1.00781 0.867188 1.99123 0 0 1
1.00781 0.875 1.98535 0 0 1
1.00781 0.882812 1.982 0 0 1
1.00781 0.890625 1.97233 0 0 1
1.00781 0.898438 1.96827 0 0 1
1.00781 0.90625 1.96494 0 0 1
1.00781 0.914062 1.95845 0 0 1
1.00781 0.921875 1.95278 0 0 1
1.00781 0.929688 1.94677 0 0 1
1.00781 0.9375 1.94401 0 0 1
1.00781 0.945312 1.93839 0 0 1
1.00781 0.953125 1.93453 0 0 1
1.00781 0.960938 1.93092 0 0 1
1.00781 0.96875 1.92818 0 0 1
1.00781 0.976562 1.92462 0 0 1
1.00781 0.984375 1.92352 0 0 1
1.00781 0.992188 1.6818 0 0 1
1.00781 1 1.6706 0 0 1
1.00781 1.00781 1.66786 0 0 1
1.00781 1.01562 1.6646 0 0 1
1.00781 1.02344 1.66093 0 0 1
1.00781 1.03125 1.66021 0 0 1
1.00781 1.03906 1.65972 0 0 1
1.00781 1.04688 1.66031 0 0 1
1.00781 1.05469 1.66224 0 0 1
1.00781 1.0625 1.66779 0 0 1
1.00781 1.07031 1.67213 0 0 1
1.00781 1.07812 1.68214 0 0 1
1.00781 1.08594 1.69652 0 0 1
1.00781 1.09375 1.91257 0 0 1
1.00781 1.10156 1.91455 0 0 1
1.00781 1.10938 1.91714 0 0 1
1.00781 1.11719 1.92048 0 0 1
1.00781 1.125 1.92711 0 0 1
1.00781 1.13281 1.93604 0 0 1
1.00781 1.14062 1.94737 0 0 1
1.00781 1.14844 1.96041 0 0 1
1.00781 1.15625 1.97418 0 0 1
1.00781 1.16406 1.98355 0 0 1
1.00781 1.17188 1.99299 0 0 1
1.01562 0.851562 1.98932 0 0 1
1.01562 0.859375 1.98563 0 0 1
1.01562 0.867188 1.97516 0 0 1
1.01562 0.875 1.97215 0 0 1
1.01562 0.882812 1.96918 0 0 1
1.01562 0.890625 1.96322 0 0 1
1.01562 0.898438 1.9596 0 0 1
1.01562 0.90625 1.95368 0 0 1
1.01562 0.914062 1.95099 0 0 1
1.01562 0.921875 1.94489 0 0 1
1.01562 0.929688 1.93939 0 0 1
1.01562 0.9375 1.9342 0 0 1
1.01562 0.945312 1.93137 0 0 1
1.01562 0.953125 1.92808 0 0 1
1.01562 0.960938 1.92498 0 0 1
1.01562 0.96875 1.92241 0 0 1
1.01562 0.976562 1.91917 0 0 1
1.01562 0.984375 1.6851 0 0 1
1.01562 0.992188 1.67019 0 0 1
1.01562 1 1.66463 0 0 1
1.01562 1.00781 1.66219 0 0 1
1.01562 1.01562 1.65957 0 0 1
1.01562 1.02344 1.65722 0 0 1
1.01562 1.03125 1.65639 0 0 1
1.01562 1.03906 1.65679 0 0 1
1.01562 1.04688 1.6589 0 0 1
1.01562 1.05469 1.66219 0 0 1
1.01562 1.0625 1.66583 0 0 1
1.01562 1.07031 1.67287 0 0 1
1.01562 1.07812 1.68333 0 0 1
1.01562 1.08594 1.9123 0 0 1
1.01562 1.09375 1.91418 0 0 1
1.01562 1.10156 1.91844 0 0 1
1.01562 1.10938 1.92046 0 0 1
1.01562 1.11719 1.92659 0 0 1
1.01562 1.125 1.93421 0 0 1
1.01562 1.13281 1.94563 0 0 1
1.01562 1.14062 1.96127 0 0 1
1.01562 1.14844 1.97613 0 0 1
1.01562 1.15625 1.98709 0 0 1
1.01562 1.16406 1.99638 0 0 1
1.02344 0.835938 1.99698 0 0 1
1.02344 0.84375 1.98509 0 0 1
1.02344 0.851562 1.97995 0 0 1
1.02344 0.859375 1.97285 0 0 1
1.02344 0.867188 1.96513 0 0 1
1.02344 0.875 1.95927 0 0 1
1.02344 0.882812 1.95815 0 0 1
1.02344 0.890625 1.95508 0 0 1
1.02344 0.898438 1.94875 0 0 1
1.02344 0.90625 1.94591 0 0 1
1.02344 0.914062 1.94383 0 0 1
1.02344 0.921875 1.93586 0 0 1
1.02344 0.929688 1.93293 0 0 1
1.02344 0.9375 1.92789 0 0 1
1.02344 0.945312 1.92551 0 0 1
1.02344 0.953125 1.92297 0 0 1
1.02344 0.960938 1.91974 0 0 1
1.02344 0.96875 1.91651 0 0 1
1.02344 0.976562 1.91586 0 0 1
1.02344 0.984375 1.66767 0 0 1
1.02344 0.992188 1.66206 0 0 1
1.02344 1 1.65925 0 0 1
1.02344 1.00781 1.65729 0 0 1
1.02344 1.01562 1.65335 0 0 1
1.02344 1.02344 1.65328 0 0 1
1.02344 1.03125 1.65419 0 0 1
1.02344 1.03906 1.65569 0 0 1
1.02344 1.04688 1.6578 0 0 1
1.02344 1.05469 1.66197 0 0 1
1.02344 1.0625 1.66689 0 0 1
1.02344 1.07031 1.67516 0 0 1
1.02344 1.07812 1.91211 0 0 1
1.02344 1.08594 1.91361 0 0 1
1.02344 1.09375 1.91664 0 0 1
1.02344 1.10156 1.91979 0 0 1
1.02344 1.10938 1.92525 0 0 1
1.02344 1.11719 1.93226 0 0 1
1.02344 1.125 1.94233 0 0 1
1.02344 1.13281 1.9557 0 0 1
1.02344 1.14062 1.97294 0 0 1
1.02344 1.14844 1.98506 0 0 1
1.02344 1.15625 1.9969 0 0 1
1.03125 0.828125 1.996 0 0 1
1.03125 0.835938 1.98634 0 0 1
1.03125 0.84375 1.9768 0 0 1
1.03125 0.851562 1.96795 0 0 1
1.03125 0.859375 1.9609 0 0 1
1.03125 0.867188 1.95986 0 0 1
1.03125 0.875 1.95177 0 0 1
1.03125 0.882812 1.94757 0 0 1
1.03125 0.890625 1.94719 0 0 1
1.03125 0.898438 1.94217 0 0 1
1.03125 0.90625 1.93946 0 0 1
1.03125 0.914062 1.93727 0 0 1
1.03125 0.921875 1.93221 0 0 1
1.03125 0.929688 1.92756 0 0 1
1.03125 0.9375 1.92361 0 0 1
1.03125 0.945312 1.92103 0 0 1
1.03125 0.953125 1.91891 0 0 1
1.03125 0.960938 1.91543 0 0 1
1.03125 0.96875 1.91419 0 0 1
1.03125 0.976562 1.6731 0 0 1
1.03125 0.984375 1.65945 0 0 1
1.03125 0.992188 1.6564 0 0 1
1.03125 1 1.65351 0 0 1
1.03125 1.00781 1.65265 0 0 1
1.03125 1.01562 1.6501 0 0 1
1.03125 1.02344 1.65073 0 0 1
1.03125 1.03125 1.65143 0 0 1
1.03125 1.03906 1.65383 0 0 1
1.03125 1.04688 1.65884 0 0 1
1.03125 1.05469 1.66223 0 0 1
1.03125 1.0625 1.669 0 0 1
1.03125 1.07031 1.67833 0 0 1
1.03125 1.07812 1.91408 0 0 1
1.03125 1.08594 1.91671 0 0 1
1.03125 1.09375 1.91913 0 0 1
1.03125 1.10156 1.92332 0 0 1
1.03125 1.10938 1.92883 0 0 1
1.03125 1.11719 1.93907 0 0 1
1.03125 1.125 1.94998 0 0 1
1.03125 1.13281 1.96913 0 0 1
1.03125 1.14062 1.98187 0 0 1
1.03125 1.14844 1.99492 0 0 1
1.03906 0.820312 1.99847 0 0 1
1.03906 0.828125 1.98442 0 0 1
1.03906 0.835938 1.97435 0 0 1
1.03906 0.84375 1.96572 0 0 1
1.03906 0.851562 1.96013 0 0 1
1.03906 0.859375 1.95431 0 0 1
1.03906 0.867188 1.9496 0 0 1
1.03906 0.875 1.94602 0 0 1
1.03906 0.882812 1.9438 0 0 1
1.03906 0.890625 1.94043 0 0 1
1.03906 0.898438 1.93747 0 0 1
1.03906 0.90625 1.93544 0 0 1
1.03906 0.914062 1.9316 0 0 1
1.03906 0.921875 1.92939 0 0 1
1.03906 0.929688 1.92441 0 0 1
1.03906 0.9375 1.9203 0 0 1
1.03906 0.945312 1.91693 0 0 1
1.03906 0.953125 1.91482 0 0 1
1.03906 0.960938 1.91281 0 0 1
1.03906 0.96875 1.91062 0 0 1
1.03906 0.976562 1.66178 0 0 1
1.03906 0.984375 1.65428 0 0 1
1.03906 0.992188 1.65177 0 0 1
1.03906 1 1.64914 0 0 1
1.03906 1.00781 1.64816 0 0 1
1.03906 1.01562 1.64748 0 0 1
1.03906 1.02344 1.6479 0 0 1
1.03906 1.03125 1.64949 0 0 1
1.03906 1.03906 1.65347 0 0 1
1.03906 1.04688 1.65862 0 0 1
1.03906 1.05469 1.6642 0 0 1
1.03906 1.0625 1.67188 0 0 1
1.03906 1.07031 1.91328 0 0 1
1.03906 1.07812 1.9153 0 0 1
1.03906 1.08594 1.91843 0 0 1
1.03906 1.09375 1.92195 0 0 1
1.03906 1.10156 1.92825 0 0 1
1.03906 1.10938 1.93603 0 0 1
1.03906 1.11719 1.94387 0 0 1
1.03906 1.125 1.9611 0 0 1
1.03906 1.13281 1.98014 0 0 1
1.03906 1.14062 1.99749 0 0 1
1.04688 0.820312 1.98864 0 0 1
1.04688 0.828125 1.97606 0 0 1
1.04688 0.835938 1.96683 0 0 1
1.04688 0.84375 1.95849 0 0 1
1.04688 0.851562 1.95491 0 0 1
1.04688 0.859375 1.94883 0 0 1
1.04688 0.867188 1.94492 0 0 1
1.04688 0.875 1.94138 0 0 1
1.04688 0.882812 1.93839 0 0 1
1.04688 0.890625 1.9351 0 0 1
1.04688 0.898438 1.93356 0 0 1
1.04688 0.90625 1.93085 0 0 1
1.04688 0.914062 1.92841 0 0 1
1.04688 0.921875 1.92576 0 0 1
1.04688 0.929688 1.92237 0 0 1
1.04688 0.9375 1.9181 0 0 1
1.04688 0.945312 1.91585 0 0 1
1.04688 0.953125 1.91286 0 0 1
1.04688 0.960938 1.91011 0 0 1
1.04688 0.96875 1.66342 0 0 1
1.04688 0.976562 1.65381 0 0 1
1.04688 0.984375 1.65016 0 0 1
1.04688 0.992188 1.64671 0 0 1
1.04688 1 1.64622 0 0 1
1.04688 1.00781 1.64483 0 0 1
1.04688 1.01562 1.64504 0 0 1
1.04688 1.02344 1.64579 0 0 1
1.04688 1.03125 1.64791 0 0 1
1.04688 1.03906 1.65348 0 0 1
1.04688 1.04688 1.65967 0 0 1
1.04688 1.05469 1.66581 0 0 1
1.04688 1.0625 1.67773 0 0 1
1.04688 1.07031 1.91439 0 0 1
1.04688 1.07812 1.91751 0 0 1
1.04688 1.08594 1.92009 0 0 1
1.04688 1.09375 1.92498 0 0 1
1.04688 1.10156 1.93041 0 0 1
1.04688 1.10938 1.94109 0 0 1
1.04688 1.11719 1.95182 0 0 1
1.04688 1.125 1.97198 0 0 1
1.04688 1.13281 1.99491 0 0 1
1.05469 0.8125 1.99034 0 0 1
1.05469 0.820312 1.97795 0 0 1
1.05469 0.828125 1.96682 0 0 1
1.05469 0.835938 1.95979 0 0 1
1.05469 0.84375 1.9511 0 0 1
1.05469 0.851562 1.94746 0 0 1
1.05469 0.859375 1.9438 0 0 1
1.05469 0.867188 1.94064 0 0 1
1.05469 0.875 1.9384 0 0 1
1.05469 0.882812 1.93386 0 0 1
1.05469 0.890625 1.93228 0 0 1
1.05469 0.898438 1.93008 0 0 1
1.05469 0.90625 1.92745 0 0 1
1.05469 0.914062 1.92559 0 0 1
1.05469 0.921875 1.92247 0 0 1
1.05469 0.929688 1.92161 0 0 1
1.05469 0.9375 1.91798 0 0 1
1.05469 0.945312 1.91419 0 0 1
1.05469 0.953125 1.91111 0 0 1
1.05469 0.960938 1.67751 0 0 1
1.05469 0.96875 1.65323 0 0 1
1.05469 0.976562 1.64805 0 0 1
1.05469 0.984375 1.64505 0 0 1
1.05469 0.992188 1.64258 0 0 1
1.05469 1 1.64225 0 0 1
1.05469 1.00781 1.64186 0 0 1
1.05469 1.01562 1.64227 0 0 1
1.05469 1.02344 1.6449 0 0 1
1.05469 1.03125 1.64833 0 0 1
1.05469 1.03906 1.65365 0 0 1
1.05469 1.04688 1.66179 0 0 1
1.05469 1.05469 1.67118 0 0 1
1.05469 1.0625 1.91551 0 0 1
1.05469 1.07031 1.91766 0 0 1
1.05469 1.07812 1.91902 0 0 1
1.05469 1.08594 1.92344 0 0 1
1.05469 1.09375 1.92831 0 0 1
1.05469 1.10156 1.9349 0 0 1
1.05469 1.10938 1.94746 0 0 1
1.05469 1.11719 1.96584 0 0 1
1.05469 1.125 1.98651 0 0 1
1.0625 0.804688 1.99314 0 0 1
1.0625 0.8125 1.98332 0 0 1
1.0625 0.820312 1.96587 0 0 1
1.0625 0.828125 1.95982 0 0 1
1.0625 0.835938 1.95234 0 0 1
1.0625 0.84375 1.94653 0 0 1
1.0625 0.851562 1.94132 0 0 1
1.0625 0.859375 1.94045 0 0 1
1.0625 0.867188 1.93788 0 0 1
1.0625 0.875 1.93395 0 0 1
1.0625 0.882812 1.93311 0 0 1
1.0625 0.890625 1.93015 0 0 1
1.0625 0.898438 1.92802 0 0 1
1.0625 0.90625 1.92484 0 0 1
1.0625 0.914062 1.92241 0 0 1
1.0625 0.921875 1.92039 0 0 1
1.0625 0.929688 1.91825 0 0 1
1.0625 0.9375 1.91671 0 0 1
1.0625 0.945312 1.91314 0 0 1
1.0625 0.953125 1.91015 0 0 1
1.0625 0.960938 1.65505 0 0 1
1.0625 0.96875 1.6475 0 0 1
1.0625 0.976562 1.64212 0 0 1
1.0625 0.984375 1.6412 0 0 1
1.0625 0.992188 1.63939 0 0 1
1.0625 1 1.63948 0 0 1
1.0625 1.00781 1.64001 0 0 1
1.0625 1.01562 1.64151 0 0 1
1.0625 1.02344 1.6453 0 0 1
1.0625 1.03125 1.64845 0 0 1
1.0625 1.03906 1.65455 0 0 1
1.0625 1.04688 1.66323 0 0 1
1.0625 1.05469 1.68699 0 0 1
1.0625 1.0625 1.91675 0 0 1
1.0625 1.07031 1.91938 0 0 1
1.0625 1.07812 1.92243 0 0 1
1.0625 1.08594 1.9254 0 0 1
1.0625 1.09375 1.93138 0 0 1
1.0625 1.10156 1.94066 0 0 1
1.0625 1.10938 1.9514 0 0 1
1.0625 1.11719 1.97433 0 0 1
1.07031 0.796875 1.99766 0 0 1
1.07031 0.804688 1.98126 0 0 1
1.07031 0.8125 1.97025 0 0 1
1.07031 0.820312 1.96166 0 0 1
1.07031 0.828125 1.95381 0 0 1
1.07031 0.835938 1.94759 0 0 1
1.07031 0.84375 1.942 0 0 1
1.07031 0.851562 1.93796 0 0 1
1.07031 0.859375 1.93592 0 0 1
1.07031 0.867188 1.93326 0 0 1
1.07031 0.875 1.93324 0 0 1
1.07031 0.882812 1.93101 0 0 1
1.07031 0.890625 1.9268 0 0 1
1.07031 0.898438 1.92581 0 0 1
1.07031 0.90625 1.92249 0 0 1
1.07031 0.914062 1.92098 0 0 1
1.07031 0.921875 1.91933 0 0 1
1.07031 0.929688 1.91554 0 0 1
1.07031 0.9375 1.91536 0 0 1
1.07031 0.945312 1.91339 0 0 1
1.07031 0.953125 1.67214 0 0 1
1.07031 0.960938 1.64949 0 0 1
1.07031 0.96875 1.64026 0 0 1
1.07031 0.976562 1.6378 0 0 1
1.07031 0.984375 1.63719 0 0 1
1.07031 0.992188 1.6362 0 0 1
1.07031 1 1.63696 0 0 1
1.07031 1.00781 1.63834 0 0 1
1.07031 1.01562 1.64074 0 0 1
1.07031 1.02344 1.64509 0 0 1
1.07031 1.03125 1.64971 0 0 1
1.07031 1.03906 1.65761 0 0 1
1.07031 1.04688 1.67253 0 0 1
1.07031 1.05469 1.91851 0 0 1
1.07031 1.0625 1.91947 0 0 1
1.07031 1.07031 1.92134 0 0 1
1.07031 1.07812 1.92482 0 0 1
1.07031 1.08594 1.92986 0 0 1
1.07031 1.09375 1.93517 0 0 1
1.07031 1.10156 1.94695 0 0 1
1.07031 1.10938 1.96314 0 0 1
1.07812 0.796875 1.99084 0 0 1
1.07812 0.804688 1.97472 0 0 1
1.07812 0.8125 1.96335 0 0 1
1.07812 0.820312 1.95537 0 0 1
1.07812 0.828125 1.94727 0 0 1
1.07812 0.835938 1.94353 0 0 1
1.07812 0.84375 1.93872 0 0 1
1.07812 0.851562 1.93523 0 0 1
1.07812 0.859375 1.93329 0 0 1
1.07812 0.867188 1.93283 0 0 1
1.07812 0.875 1.93197 0 0 1
1.07812 0.882812 1.92717 0 0 1
1.07812 0.890625 1.92595 0 0 1
1.07812 0.898438 1.92375 0 0 1
1.07812 0.90625 1.92221 0 0 1
1.07812 0.914062 1.91995 0 0 1
1.07812 0.921875 1.91884 0 0 1
1.07812 0.929688 1.9157 0 0 1
1.07812 0.9375 1.91315 0 0 1
1.07812 0.945312 1.91367 0 0 1
1.07812 0.953125 1.65192 0 0 1
1.07812 0.960938 1.6411 0 0 1
1.07812 0.96875 1.63665 0 0 1
1.07812 0.976562 1.63374 0 0 1
1.07812 0.984375 1.63353 0 0 1
1.07812 0.992188 1.63428 0 0 1
1.07812 1 1.63544 0 0 1
1.07812 1.00781 1.63672 0 0 1
1.07812 1.01562 1.64021 0 0 1
1.07812 1.02344 1.64571 0 0 1
1.07812 1.03125 1.65183 0 0 1
1.07812 1.03906 1.6622 0 0 1
1.07812 1.04688 1.91792 0 0 1
1.07812 1.05469 1.92036 0 0 1
1.07812 1.0625 1.92276 0 0 1
1.07812 1.07031 1.92498 0 0 1
1.07812 1.07812 1.92942 0 0 1
1.07812 1.08594 1.93446 0 0 1
1.07812 1.09375 1.93963 0 0 1
1.07812 1.10156 1.95103 0 0 1
1.07812 1.10938 1.98437 0 0 1
1.08594 0.789062 1.99542 0 0 1
1.08594 0.796875 1.97907 0 0 1
1.08594 0.804688 1.96792 0 0 1
1.08594 0.8125 1.95988 0 0 1
1.08594 0.820312 1.95119 0 0 1
1.08594 0.828125 1.94378 0 0 1
1.08594 0.835938 1.93929 0 0 1
1.08594 0.84375 1.93478 0 0 1
1.08594 0.851562 1.93367 0 0 1
1.08594 0.859375 1.93131 0 0 1
1.08594 0.867188 1.92897 0 0 1
1.08594 0.875 1.92766 0 0 1
1.08594 0.882812 1.92646 0 0 1
1.08594 0.890625 1.92525 0 0 1
1.08594 0.898438 1.92276 0 0 1
1.08594 0.90625 1.92154 0 0 1
1.08594 0.914062 1.91905 0 0 1
1.08594 0.921875 1.91819 0 0 1
1.08594 0.929688 1.91542 0 0 1
1.08594 0.9375 1.91196 0 0 1
1.08594 0.945312 1.91017 0 0 1
1.08594 0.953125 1.64492 0 0 1
1.08594 0.960938 1.6347 0 0 1
1.08594 0.96875 1.63266 0 0 1
1.08594 0.976562 1.63085 0 0 1
1.08594 0.984375 1.63032 0 0 1
1.08594 0.992188 1.63094 0 0 1
1.08594 1 1.63334 0 0 1
1.08594 1.00781 1.6356 0 0 1
1.08594 1.01562 1.64087 0 0 1
1.08594 1.02344 1.64664 0 0 1
1.08594 1.03125 1.65658 0 0 1
1.08594 1.03906 1.91799 0 0 1
1.08594 1.04688 1.9199 0 0 1
1.08594 1.05469 1.92475 0 0 1
1.08594 1.0625 1.92734 0 0 1
1.08594 1.07031 1.92965 0 0 1
1.08594 1.07812 1.93215 0 0 1
1.08594 1.08594 1.93674 0 0 1
1.08594 1.09375 1.94689 0 0 1
1.08594 1.10156 1.96724 0 0 1
1.09375 0.789062 1.98865 0 0 1
1.09375 0.796875 1.97446 0 0 1
1.09375 0.804688 1.96134 0 0 1
1.09375 0.8125 1.95336 0 0 1
1.09375 0.820312 1.94564 0 0 1
1.09375 0.828125 1.94029 0 0 1
1.09375 0.835938 1.93732 0 0 1
1.09375 0.84375 1.9341 0 0 1
1.09375 0.851562 1.93063 0 0 1
1.09375 0.859375 1.92944 0 0 1
1.09375 0.867188 1.92589 0 0 1
1.09375 0.875 1.92511 0 0 1
1.09375 0.882812 1.92441 0 0 1
1.09375 0.890625 1.9232 0 0 1
1.09375 0.898438 1.92151 0 0 1
1.09375 0.90625 1.92012 0 0 1
1.09375 0.914062 1.919 0 0 1
1.09375 0.921875 1.91657 0 0 1
1.09375 0.929688 1.91449 0 0 1
1.09375 0.9375 1.91175 0 0 1
1.09375 0.945312 1.65119 0 0 1
1.09375 0.953125 1.6362 0 0 1
1.09375 0.960938 1.63151 0 0 1
1.09375 0.96875 1.62875 0 0 1
1.09375 0.976562 1.62747 0 0 1
1.09375 0.984375 1.62818 0 0 1
1.09375 0.992188 1.62974 0 0 1
1.09375 1 1.63216 0 0 1
1.09375 1.00781 1.63578 0 0 1
1.09375 1.01562 1.64111 0 0 1
1.09375 1.02344 1.65072 0 0 1
1.09375 1.03125 1.67131 0 0 1
1.09375 1.03906 1.9199 0 0 1
1.09375 1.04688 1.92426 0 0 1
1.09375 1.05469 1.92908 0 0 1
1.09375 1.0625 1.93184 0 0 1
1.09375 1.07031 1.9339 0 0 1
1.09375 1.07812 1.93728 0 0 1
1.09375 1.08594 1.9441 0 0 1
1.09375 1.09375 1.95775 0 0 1
1.10156 0.78125 1.99409 0 0 1
1.10156 0.789062 1.98284 0 0 1
1.10156 0.796875 1.96681 0 0 1
1.10156 0.804688 1.95546 0 0 1
1.10156 0.8125 1.94727 0 0 1
1.10156 0.820312 1.94195 0 0 1
1.10156 0.828125 1.93818 0 0 1
1.10156 0.835938 1.93318 0 0 1
1.10156 0.84375 1.9307 0 0 1
1.10156 0.851562 1.93001 0 0 1
1.10156 0.859375 1.92653 0 0 1
1.10156 0.867188 1.9255 0 0 1
1.10156 0.875 1.92317 0 0 1
1.10156 0.882812 1.92325 0 0 1
1.10156 0.890625 1.92273 0 0 1
1.10156 0.898438 1.92136 0 0 1
1.10156 0.90625 1.9201 0 0 1
1.10156 0.914062 1.91746 0 0 1
1.10156 0.921875 1.91572 0 0 1
1.10156 0.9375 1.9122 0 0 1
1.10156 0.945312 1.6385 0 0 1
1.10156 0.953125 1.62888 0 0 1
1.10156 0.960938 1.62586 0 0 1
1.10156 0.96875 1.62483 0 0 1
1.10156 0.976562 1.62494 0 0 1
1.10156 0.984375 1.62457 0 0 1
1.10156 0.992188 1.62766 0 0 1
1.10156 1 1.62991 0 0 1
1.10156 1.00781 1.63601 0 0 1
1.10156 1.01562 1.64229 0 0 1
1.10156 1.02344 1.65663 0 0 1
1.10156 1.03125 1.91903 0 0 1
1.10156 1.03906 1.92307 0 0 1
1.10156 1.04688 1.92851 0 0 1
1.10156 1.05469 1.93169 0 0 1
1.10156 1.0625 1.93729 0 0 1
1.10156 1.07031 1.93956 0 0 1
1.10156 1.07812 1.94294 0 0 1
1.10156 1.08594 1.95248 0 0 1
1.10156 1.09375 1.97658 0 0 1
1.10938 0.78125 1.99038 0 0 1
1.10938 0.789062 1.97645 0 0 1
1.10938 0.796875 1.96258 0 0 1
1.10938 0.804688 1.95241 0 0 1
1.10938 0.8125 1.94519 0 0 1
1.10938 0.820312 1.93882 0 0 1
1.10938 0.828125 1.93386 0 0 1
1.10938 0.835938 1.93235 0 0 1
1.10938 0.84375 1.92886 0 0 1
1.10938 0.851562 1.92647 0 0 1
1.10938 0.859375 1.9256 0 0 1
1.10938 0.867188 1.9257 0 0 1
1.10938 0.875 1.92346 0 0 1
1.10938 0.882812 1.92347 0 0 1
1.10938 0.890625 1.92222 0 0 1
1.10938 0.898438 1.92125 0 0 1
1.10938 0.90625 1.91833 0 0 1
1.10938 0.914062 1.91701 0 0 1
1.10938 0.921875 1.91604 0 0 1
1.10938 0.929688 1.91085 0 0 1
1.10938 0.9375 1.64853 0 0 1
1.10938 0.945312 1.63114 0 0 1
1.10938 0.953125 1.6248 0 0 1
1.10938 0.960938 1.62194 0 0 1
1.10938 0.96875 1.62107 0 0 1
1.10938 0.976562 1.62163 0 0 1
1.10938 0.984375 1.62319 0 0 1
1.10938 0.992188 1.62421 0 0 1
1.10938 1 1.62965 0 0 1
1.10938 1.00781 1.63513 0 0 1
1.10938 1.01562 1.64687 0 0 1
1.10938 1.02344 1.91853 0 0 1
1.10938 1.03125 1.92341 0 0 1
1.10938 1.03906 1.92763 0 0 1
1.10938 1.04688 1.93373 0 0 1
1.10938 1.05469 1.93723 0 0 1
1.10938 1.0625 1.94282 0 0 1
1.10938 1.07031 1.94625 0 0 1
1.10938 1.07812 1.95387 0 0 1
1.10938 1.08594 1.96775 0 0 1
1.11719 0.78125 1.98373 0 0 1
1.11719 0.789062 1.96987 0 0 1
1.11719 0.796875 1.96049 0 0 1
1.11719 0.804688 1.95066 0 0 1
1.11719 0.8125 1.94373 0 0 1
1.11719 0.820312 1.93711 0 0 1
1.11719 0.828125 1.93148 0 0 1
1.11719 0.835938 1.92888 0 0 1
1.11719 0.84375 1.92783 0 0 1
1.11719 0.851562 1.9251 0 0 1
1.11719 0.859375 1.92475 0 0 1
1.11719 0.867188 1.92461 0 0 1
1.11719 0.875 1.92336 0 0 1
1.11719 0.882812 1.92234 0 0 1
1.11719 0.890625 1.92103 0 0 1
1.11719 0.898438 1.91973 0 0 1
1.11719 0.90625 1.9182 0 0 1
1.11719 0.914062 1.91611 0 0 1
1.11719 0.921875 1.91339 0 0 1
1.11719 0.929688 1.90648 0 0 1
1.11719 0.9375 1.63267 0 0 1
1.11719 0.945312 1.62331 0 0 1
1.11719 0.953125 1.62024 0 0 1
1.11719 0.960938 1.61847 0 0 1
1.11719 0.96875 1.61843 0 0 1
1.11719 0.976562 1.61828 0 0 1
1.11719 0.984375 1.62008 0 0 1
1.11719 0.992188 1.62413 0 0 1
1.11719 1 1.62805 0 0 1
1.11719 1.00781 1.63562 0 0 1
1.11719 1.01562 1.91943 0 0 1
1.11719 1.02344 1.92316 0 0 1
1.11719 1.03125 1.92619 0 0 1
1.11719 1.03906 1.93258 0 0 1
1.11719 1.04688 1.93793 0 0 1
1.11719 1.05469 1.94407 0 0 1
1.11719 1.0625 1.95204 0 0 1
1.11719 1.07031 1.96012 0 0 1
1.11719 1.07812 1.96923 0 0 1
1.125 0.78125 1.98156 0 0 1
1.125 0.789062 1.96655 0 0 1
1.125 0.796875 1.95728 0 0 1
1.125 0.804688 1.94779 0 0 1
1.125 0.8125 1.94265 0 0 1
1.125 0.820312 1.93769 0 0 1
1.125 0.828125 1.93208 0 0 1
1.125 0.835938 1.92764 0 0 1
1.125 0.84375 1.92722 0 0 1
1.125 0.851562 1.92454 0 0 1
1.125 0.859375 1.92313 0 0 1
1.125 0.867188 1.92162 0 0 1
1.125 0.875 1.92266 0 0 1
1.125 0.882812 1.92183 0 0 1
1.125 0.890625 1.92033 0 0 1
1.125 0.898438 1.91857 0 0 1
1.125 0.90625 1.91837 0 0 1
1.125 0.914062 1.91617 0 0 1
1.125 0.921875 1.90856 0 0 1
1.125 0.929688 1.9083 0 0 1
1.125 0.9375 1.62286 0 0 1
1.125 0.945312 1.61845 0 0 1
1.125 0.953125 1.61611 0 0 1
1.125 0.960938 1.61606 0 0 1
1.125 0.96875 1.61511 0 0 1
1.125 0.976562 1.61599 0 0 1
1.125 0.984375 1.61794 0 0 1
1.125 0.992188 1.62215 0 0 1
1.125 1 1.63003 0 0 1
1.125 1.00781 1.63938 0 0 1
1.125 1.01562 1.92189 0 0 1
1.125 1.02344 1.9255 0 0 1
1.125 1.03125 1.93167 0 0 1
1.125 1.03906 1.93817 0 0 1
1.125 1.04688 1.94394 0 0 1
1.125 1.05469 1.95415 0 0 1
1.125 1.0625 1.96561 0 0 1
1.125 1.07031 1.98603 0 0 1
1.13281 0.78125 1.99597 0 0 1
1.13281 0.789062 1.972 0 0 1
1.13281 0.796875 1.95438 0 0 1
1.13281 0.804688 1.9466 0 0 1
1.13281 0.8125 1.93953 0 0 1
1.13281 0.820312 1.93363 0 0 1
1.13281 0.828125 1.9312 0 0 1
1.13281 0.835938 1.92878 0 0 1
1.13281 0.84375 1.92628 0 0 1
1.13281 0.851562 1.92132 0 0 1
1.13281 0.859375 1.92166 0 0 1
1.13281 0.867188 1.92062 0 0 1
1.13281 0.875 1.91977 0 0 1
1.13281 0.882812 1.92155 0 0 1
1.13281 0.890625 1.92083 0 0 1
1.13281 0.898438 1.91879 0 0 1
1.13281 0.90625 1.91814 0 0 1
1.13281 0.914062 1.91118 0 0 1
1.13281 0.921875 1.90955 0 0 1
1.13281 0.929688 1.6258 0 0 1
1.13281 0.9375 1.61406 0 0 1
1.13281 0.945312 1.61338 0 0 1
1.13281 0.953125 1.61181 0 0 1
1.13281 0.960938 1.61201 0 0 1
1.13281 0.96875 1.61182 0 0 1
1.13281 0.976562 1.61462 0 0 1
1.13281 0.984375 1.6164 0 0 1
1.13281 0.992188 1.62151 0 0 1
1.13281 1 1.6307 0 0 1
1.13281 1.00781 1.92326 0 0 1
1.13281 1.01562 1.92659 0 0 1
1.13281 1.02344 1.93063 0 0 1
1.13281 1.03125 1.93691 0 0 1
1.13281 1.03906 1.94291 0 0 1
1.13281 1.04688 1.95346 0 0 1
1.13281 1.05469 1.96717 0 0 1
1.14062 0.789062 1.96608 0 0 1
1.14062 0.796875 1.95315 0 0 1
1.14062 0.804688 1.94575 0 0 1
1.14062 0.8125 1.93856 0 0 1
1.14062 0.820312 1.93434 0 0 1
1.14062 0.828125 1.93224 0 0 1
1.14062 0.835938 1.92704 0 0 1
1.14062 0.84375 1.92399 0 0 1
1.14062 0.851562 1.92106 0 0 1
1.14062 0.859375 1.92056 0 0 1
1.14062 0.867188 1.91969 0 0 1
1.14062 0.875 1.91938 0 0 1
1.14062 0.882812 1.91898 0 0 1
1.14062 0.890625 1.91911 0 0 1
1.14062 0.898438 1.91725 0 0 1
1.14062 0.90625 1.91536 0 0 1
1.14062 0.914062 1.91181 0 0 1
1.14062 0.921875 1.9117 0 0 1
1.14062 0.929688 1.61479 0 0 1
1.14062 0.9375 1.60909 0 0 1
1.14062 0.945312 1.60745 0 0 1
1.14062 0.953125 1.60738 0 0 1
1.14062 0.960938 1.60807 0 0 1
1.14062 0.96875 1.60949 0 0 1
1.14062 0.976562 1.61164 0 0 1
1.14062 0.984375 1.61543 0 0 1
1.14062 0.992188 1.62145 0 0 1
1.14062 1 1.9236 0 0 1
1.14062 1.00781 1.92706 0 0 1
1.14062 1.01562 1.93055 0 0 1
1.14062 1.02344 1.93728 0 0 1
1.14062 1.03125 1.94665 0 0 1
1.14062 1.03906 1.95524 0 0 1
1.14062 1.04688 1.9665 0 0 1
1.14844 0.78125 1.97358 0 0 1
1.14844 0.789062 1.95722 0 0 1
1.14844 0.796875 1.94713 0 0 1
1.14844 0.804688 1.93975 0 0 1
1.14844 0.8125 1.93504 0 0 1
1.14844 0.820312 1.93176 0 0 1
1.14844 0.828125 1.92824 0 0 1
1.14844 0.835938 1.92577 0 0 1
1.14844 0.84375 1.92473 0 0 1
1.14844 0.851562 1.92322 0 0 1
1.14844 0.859375 1.92105 0 0 1
1.14844 0.867188 1.91936 0 0 1
1.14844 0.875 1.91873 0 0 1
1.14844 0.882812 1.91742 0 0 1
1.14844 0.890625 1.91782 0 0 1
1.14844 0.898438 1.91631 0 0 1
1.14844 0.90625 1.91377 0 0 1
1.14844 0.914062 1.91401 0 0 1
1.14844 0.921875 1.61948 0 0 1
1.14844 0.929688 1.60514 0 0 1
1.14844 0.9375 1.60294 0 0 1
1.14844 0.945312 1.6029 0 0 1
1.14844 0.953125 1.60334 0 0 1
1.14844 0.960938 1.60473 0 0 1
1.14844 0.96875 1.60662 0 0 1
1.14844 0.976562 1.611 0 0 1
1.14844 0.984375 1.61536 0 0 1
1.14844 0.992188 1.62496 0 0 1
1.14844 1 1.92622 0 0 1
1.14844 1.00781 1.93081 0 0 1
1.14844 1.01562 1.9356 0 0 1
1.14844 1.02344 1.94629 0 0 1
1.14844 1.03125 1.95701 0 0 1
1.14844 1.03906 1.97704 0 0 1
1.15625 0.773438 1.98635 0 0 1
1.15625 0.78125 1.96689 0 0 1
1.15625 0.789062 1.95375 0 0 1
1.15625 0.796875 1.94512 0 0 1
1.15625 0.804688 1.93775 0 0 1
1.15625 0.8125 1.93217 0 0 1
1.15625 0.820312 1.92882 0 0 1
1.15625 0.828125 1.92486 0 0 1
1.15625 0.835938 1.92189 0 0 1
1.15625 0.84375 1.92163 0 0 1
1.15625 0.851562 1.92007 0 0 1
1.15625 0.859375 1.9197 0 0 1
1.15625 0.867188 1.92003 0 0 1
1.15625 0.875 1.91929 0 0 1
1.15625 0.882812 1.91736 0 0 1
1.15625 0.890625 1.91714 0 0 1
1.15625 0.898438 1.91601 0 0 1
1.15625 0.90625 1.91564 0 0 1
1.15625 0.914062 1.91537 0 0 1
1.15625 0.921875 1.60074 0 0 1
1.15625 0.929688 1.59716 0 0 1
1.15625 0.9375 1.59733 0 0 1
1.15625 0.945312 1.59931 0 0 1
1.15625 0.953125 1.60141 0 0 1
1.15625 0.960938 1.60344 0 0 1
1.15625 0.96875 1.60509 0 0 1
1.15625 0.976562 1.60953 0 0 1
1.15625 0.984375 1.61631 0 0 1
1.15625 0.992188 1.92604 0 0 1
1.15625 1 1.92996 0 0 1
1.15625 1.00781 1.93672 0 0 1
1.15625 1.01562 1.94693 0 0 1
1.15625 1.02344 1.96166 0 0 1
1.16406 0.765625 1.99474 0 0 1
1.16406 0.773438 1.97153 0 0 1
1.16406 0.78125 1.95836 0 0 1
1.16406 0.789062 1.94928 0 0 1
1.16406 0.796875 1.94127 0 0 1
1.16406 0.804688 1.93502 0 0 1
1.16406 0.8125 1.92946 0 0 1
1.16406 0.820312 1.92676 0 0 1
1.16406 0.828125 1.92295 0 0 1
1.16406 0.835938 1.92091 0 0 1
1.16406 0.84375 1.91857 0 0 1
1.16406 0.851562 1.91823 0 0 1
1.16406 0.859375 1.91751 0 0 1
1.16406 0.867188 1.918 0 0 1
1.16406 0.875 1.91796 0 0 1
1.16406 0.882812 1.91865 0 0 1
1.16406 0.890625 1.91716 0 0 1
1.16406 0.898438 1.91737 0 0 1
1.16406 0.90625 1.9167 0 0 1
1.16406 0.914062 1.61358 0 0 1
1.16406 0.921875 1.59575 0 0 1
1.16406 0.929688 1.59322 0 0 1
1.16406 0.9375 1.59321 0 0 1
1.16406 0.945312 1.59516 0 0 1
1.16406 0.953125 1.59784 0 0 1
1.16406 0.960938 1.60105 0 0 1
1.16406 0.96875 1.60416 0 0 1
1.16406 0.976562 1.60899 0 0 1
1.16406 0.984375 1.62222 0 0 1
1.16406 0.992188 1.93067 0 0 1
1.16406 1 1.93498 0 0 1
1.16406 1.00781 1.94448 0 0 1
1.16406 1.01562 1.95735 0 0 1
1.17188 0.757812 1.99082 0 0 1
1.17188 0.765625 1.97638 0 0 1
1.17188 0.773438 1.96484 0 0 1
1.17188 0.78125 1.95382 0 0 1
1.17188 0.789062 1.94594 0 0 1
1.17188 0.796875 1.9387 0 0 1
1.17188 0.804688 1.93383 0 0 1
1.17188 0.8125 1.92886 0 0 1
1.17188 0.820312 1.9245 0 0 1
1.17188 0.828125 1.92105 0 0 1
1.17188 0.835938 1.91955 0 0 1
1.17188 0.84375 1.91784 0 0 1
1.17188 0.851562 1.91655 0 0 1
1.17188 0.859375 1.91641 0 0 1
1.17188 0.867188 1.91673 0 0 1
1.17188 0.875 1.9165 0 0 1
1.17188 0.882812 1.91705 0 0 1
1.17188 0.890625 1.91754 0 0 1
1.17188 0.898438 1.91787 0 0 1
1.17188 0.90625 1.91835 0 0 1
1.17188 0.914062 1.59355 0 0 1
1.17188 0.921875 1.59103 0 0 1
1.17188 0.929688 1.59089 0 0 1
1.17188 0.9375 1.59049 0 0 1
1.17188 0.945312 1.59179 0 0 1
1.17188 0.953125 1.59484 0 0 1
1.17188 0.960938 1.59917 0 0 1
1.17188 0.96875 1.60381 0 0 1
1.17188 0.976562 1.60924 0 0 1
1.17188 0.984375 1.93243 0 0 1
1.17188 0.992188 1.93788 0 0 1
1.17188 1 1.94635 0 0 1
1.17188 1.00781 1.95489 0 0 1
1.17969 0.75 1.98974 0 0 1
1.17969 0.757812 1.97522 0 0 1
1.17969 0.765625 1.9643 0 0 1
1.17969 0.773438 1.95572 0 0 1
1.17969 0.78125 1.94776 0 0 1
1.17969 0.789062 1.94036 0 0 1
1.17969 0.796875 1.93624 0 0 1
1.17969 0.804688 1.93118 0 0 1
1.17969 0.8125 1.9267 0 0 1
1.17969 0.820312 1.9231 0 0 1
1.17969 0.828125 1.92091 0 0 1
1.17969 0.835938 1.91812 0 0 1
1.17969 0.84375 1.91658 0 0 1
1.17969 0.851562 1.91594 0 0 1
1.17969 0.859375 1.91579 0 0 1
1.17969 0.867188 1.91563 0 0 1
1.17969 0.875 1.91572 0 0 1
1.17969 0.882812 1.916 0 0 1
1.17969 0.890625 1.91632 0 0 1
1.17969 0.898438 1.918 0 0 1
1.17969 0.90625 1.59915 0 0 1
1.17969 0.914062 1.59013 0 0 1
1.17969 0.921875 1.58898 0 0 1
1.17969 0.929688 1.58826 0 0 1
1.17969 0.9375 1.58912 0 0 1
1.17969 0.945312 1.59018 0 0 1
1.17969 0.953125 1.59265 0 0 1
1.17969 0.960938 1.5986 0 0 1
1.17969 0.96875 1.60399 0 0 1
1.17969 0.976562 1.61377 0 0 1
1.17969 0.984375 1.93958 0 0 1
1.17969 0.992188 1.94759 0 0 1
1.17969 1 1.96498 0 0 1
1.1875 0.742188 1.98713 0 0 1
1.1875 0.75 1.97279 0 0 1
1.1875 0.757812 1.96446 0 0 1
1.1875 0.765625 1.95725 0 0 1
1.1875 0.773438 1.9495 0 0 1
1.1875 0.78125 1.9439 0 0 1
1.1875 0.789062 1.93868 0 0 1
1.1875 0.796875 1.93183 0 0 1
1.1875 0.804688 1.92898 0 0 1
1.1875 0.8125 1.925 0 0 1
1.1875 0.820312 1.92255 0 0 1
1.1875 0.828125 1.91979 0 0 1
1.1875 0.835938 1.91829 0 0 1
1.1875 0.84375 1.91653 0 0 1
1.1875 0.851562 1.91611 0 0 1
1.1875 0.859375 1.91534 0 0 1
1.1875 0.867188 1.9155 0 0 1
1.1875 0.875 1.91562 0 0 1
1.1875 0.882812 1.91577 0 0 1
1.1875 0.890625 1.91634 0 0 1
1.1875 0.898438 1.59835 0 0 1
1.1875 0.90625 1.59253 0 0 1
1.1875 0.914062 1.5889 0 0 1
1.1875 0.921875 1.58739 0 0 1
1.1875 0.929688 1.58786 0 0 1
1.1875 0.9375 1.58858 0 0 1
1.1875 0.945312 1.58955 0 0 1
1.1875 0.953125 1.59191 0 0 1
1.1875 0.960938 1.59856 0 0 1
1.1875 0.96875 1.60488 0 0 1
1.1875 0.976562 1.94155 0 0 1
1.1875 0.984375 1.94911 0 0 1
1.1875 0.992188 1.976 0 0 1
1.19531 0.734375 1.98046 0 0 1
1.19531 0.742188 1.97197 0 0 1
1.19531 0.75 1.96305 0 0 1
1.19531 0.757812 1.9572 0 0 1
1.19531 0.765625 1.9512 0 0 1
1.19531 0.773438 1.9455 0 0 1
1.19531 0.78125 1.93847 0 0 1
1.19531 0.789062 1.93363 0 0 1
1.19531 0.796875 1.93076 0 0 1
1.19531 0.804688 1.92668 0 0 1
1.19531 0.8125 1.92324 0 0 1
1.19531 0.820312 1.92125 0 0 1
1.19531 0.828125 1.91884 0 0 1
1.19531 0.835938 1.91766 0 0 1
1.19531 0.84375 1.91689 0 0 1
1.19531 0.851562 1.91577 0 0 1
1.19531 0.859375 1.91545 0 0 1
1.19531 0.867188 1.91561 0 0 1
1.19531 0.875 1.91631 0 0 1
1.19531 0.882812 1.61046 0 0 1
1.19531 0.890625 1.59505 0 0 1
1.19531 0.898438 1.59114 0 0 1
1.19531 0.90625 1.58711 0 0 1
1.19531 0.914062 1.58722 0 0 1
1.19531 0.921875 1.58663 0 0 1
1.19531 0.929688 1.58694 0 0 1
1.19531 0.9375 1.58737 0 0 1
1.19531 0.945312 1.58876 0 0 1
1.19531 0.953125 1.5918 0 0 1
1.19531 0.960938 1.59696 0 0 1
1.19531 0.96875 1.60917 0 0 1
1.19531 0.976562 1.95122 0 0 1
1.19531 0.984375 1.98851 0 0 1
1.20312 0.71875 1.99669 0 0 1
1.20312 0.726562 1.98175 0 0 1
1.20312 0.734375 1.97044 0 0 1
1.20312 0.742188 1.96215 0 0 1
1.20312 0.75 1.95632 0 0 1
1.20312 0.757812 1.95069 0 0 1
1.20312 0.765625 1.9453 0 0 1
1.20312 0.773438 1.94025 0 0 1
1.20312 0.78125 1.93522 0 0 1
1.20312 0.789062 1.93077 0 0 1
1.20312 0.796875 1.92798 0 0 1
1.20312 0.804688 1.92484 0 0 1
1.20312 0.8125 1.92258 0 0 1
1.20312 0.820312 1.92034 0 0 1
1.20312 0.828125 1.91854 0 0 1
1.20312 0.835938 1.91776 0 0 1
1.20312 0.84375 1.91679 0 0 1
1.20312 0.851562 1.91663 0 0 1
1.20312 0.859375 1.91655 0 0 1
1.20312 0.867188 1.91675 0 0 1
1.20312 0.875 1.61217 0 0 1
1.20312 0.882812 1.59884 0 0 1
1.20312 0.890625 1.5902 0 0 1
1.20312 0.898438 1.58625 0 0 1
1.20312 0.90625 1.58537 0 0 1
1.20312 0.914062 1.58518 0 0 1
1.20312 0.921875 1.58552 0 0 1
1.20312 0.929688 1.58673 0 0 1
1.20312 0.9375 1.58672 0 0 1
1.20312 0.945312 1.58889 0 0 1
1.20312 0.953125 1.5919 0 0 1
1.20312 0.960938 1.60053 0 0 1
1.20312 0.96875 1.9556 0 0 1
1.20312 0.976562 1.97911 0 0 1
1.21094 0.710938 1.98931 0 0 1
1.21094 0.71875 1.97794 0 0 1
1.21094 0.726562 1.96679 0 0 1
1.21094 0.734375 1.96087 0 0 1
1.21094 0.742188 1.95509 0 0 1
1.21094 0.75 1.94957 0 0 1
1.21094 0.757812 1.9443 0 0 1
1.21094 0.765625 1.94148 0 0 1
1.21094 0.773438 1.93612 0 0 1
1.21094 0.78125 1.93268 0 0 1
1.21094 0.789062 1.92817 0 0 1
1.21094 0.796875 1.92603 0 0 1
1.21094 0.804688 1.92284 0 0 1
1.21094 0.8125 1.9211 0 0 1
1.21094 0.820312 1.91996 0 0 1
1.21094 0.828125 1.91854 0 0 1
1.21094 0.835938 1.91761 0 0 1
1.21094 0.84375 1.91734 0 0 1
1.21094 0.851562 1.91712 0 0 1
1.21094 0.859375 1.91777 0 0 1
1.21094 0.867188 1.91831 0 0 1
1.21094 0.875 1.59649 0 0 1
1.21094 0.882812 1.59152 0 0 1
1.21094 0.890625 1.58595 0 0 1
1.21094 0.898438 1.5847 0 0 1
1.21094 0.90625 1.58378 0 0 1
1.21094 0.914062 1.58299 0 0 1
1.21094 0.921875 1.58367 0 0 1
1.21094 0.929688 1.5845 0 0 1
1.21094 0.9375 1.58597 0 0 1
1.21094 0.945312 1.58903 0 0 1
1.21094 0.953125 1.59285 0 0 1
1.21094 0.960938 1.60374 0 0 1
1.21094 0.96875 1.97675 0 0 1
1.21875 0.695312 1.99921 0 0 1
1.21875 0.703125 1.98475 0 0 1
1.21875 0.710938 1.97582 0 0 1
1.21875 0.71875 1.96812 0 0 1
1.21875 0.726562 1.96224 0 0 1
1.21875 0.734375 1.95444 0 0 1
1.21875 0.742188 1.94906 0 0 1
1.21875 0.75 1.94405 0 0 1
1.21875 0.757812 1.93932 0 0 1
1.21875 0.765625 1.93565 0 0 1
1.21875 0.773438 1.93344 0 0 1
1.21875 0.78125 1.92968 0 0 1
1.21875 0.789062 1.92725 0 0 1
1.21875 0.796875 1.92426 0 0 1
1.21875 0.804688 1.92248 0 0 1
1.21875 0.8125 1.92053 0 0 1
1.21875 0.820312 1.9196 0 0 1
1.21875 0.828125 1.91908 0 0 1
1.21875 0.835938 1.9184 0 0 1
1.21875 0.84375 1.91814 0 0 1
1.21875 0.851562 1.9184 0 0 1
1.21875 0.859375 1.91866 0 0 1
1.21875 0.867188 1.6042 0 0 1
1.21875 0.875 1.59283 0 0 1
1.21875 0.882812 1.58547 0 0 1
1.21875 0.890625 1.58463 0 0 1
1.21875 0.898438 1.58267 0 0 1
1.21875 0.90625 1.58128 0 0 1
1.21875 0.914062 1.58138 0 0 1
1.21875 0.921875 1.58224 0 0 1
1.21875 0.929688 1.58332 0 0 1
1.21875 0.9375 1.58595 0 0 1
1.21875 0.945312 1.58906 0 0 1
1.21875 0.953125 1.59837 0 0 1
1.21875 0.960938 1.98089 0 0 1
1.22656 0.6875 1.98958 0 0 1
1.22656 0.695312 1.98072 0 0 1
1.22656 0.703125 1.9718 0 0 1
1.22656 0.710938 1.96436 0 0 1
1.22656 0.71875 1.95861 0 0 1
1.22656 0.726562 1.95314 0 0 1
1.22656 0.734375 1.94785 0 0 1
1.22656 0.742188 1.94467 0 0 1
1.22656 0.75 1.94088 0 0 1
1.22656 0.757812 1.9365 0 0 1
1.22656 0.765625 1.93347 0 0 1
1.22656 0.773438 1.93066 0 0 1
1.22656 0.78125 1.92742 0 0 1
1.22656 0.789062 1.92546 0 0 1
1.22656 0.796875 1.92404 0 0 1
1.22656 0.804688 1.92232 0 0 1
1.22656 0.8125 1.92083 0 0 1
1.22656 0.820312 1.91971 0 0 1
1.22656 0.828125 1.91929 0 0 1
1.22656 0.835938 1.91932 0 0 1
1.22656 0.84375 1.91935 0 0 1
1.22656 0.851562 1.92008 0 0 1
1.22656 0.859375 1.60603 0 0 1
1.22656 0.867188 1.58842 0 0 1
1.22656 0.875 1.58915 0 0 1
1.22656 0.882812 1.58412 0 0 1
1.22656 0.890625 1.58078 0 0 1
1.22656 0.898438 1.58021 0 0 1
1.22656 0.90625 1.58013 0 0 1
1.22656 0.914062 1.57914 0 0 1
1.22656 0.921875 1.58003 0 0 1
1.22656 0.929688 1.58203 0 0 1
1.22656 0.9375 1.58579 0 0 1
1.22656 0.945312 1.58967 0 0 1
1.22656 0.953125 1.60012 0 0 1
1.23438 0.671875 1.99999 0 0 1
1.23438 0.679688 1.98542 0 0 1
1.23438 0.6875 1.97668 0 0 1
1.23438 0.695312 1.96815 0 0 1
1.23438 0.703125 1.96262 0 0 1
1.23438 0.710938 1.95728 0 0 1
1.23438 0.71875 1.95446 0 0 1
1.23438 0.726562 1.94922 0 0 1
1.23438 0.734375 1.94438 0 0 1
1.23438 0.742188 1.93946 0 0 1
1.23438 0.75 1.9372 0 0 1
1.23438 0.757812 1.93438 0 0 1
1.23438 0.765625 1.93158 0 0 1
1.23438 0.773438 1.92832 0 0 1
1.23438 0.78125 1.92693 0 0 1
1.23438 0.789062 1.92442 0 0 1
1.23438 0.796875 1.92326 0 0 1
1.23438 0.804688 1.92212 0 0 1
1.23438 0.8125 1.92166 0 0 1
1.23438 0.820312 1.9209 0 0 1
1.23438 0.828125 1.92023 0 0 1
1.23438 0.835938 1.9207 0 0 1
1.23438 0.84375 1.92057 0 0 1
1.23438 0.851562 1.59833 0 0 1
1.23438 0.859375 1.59759 0 0 1
1.23438 0.867188 1.61201 0 0 1
1.23438 0.875 1.61487 0 0 1
1.23438 0.882812 1.58072 0 0 1
1.23438 0.890625 1.5793 0 0 1
1.23438 0.898438 1.57617 0 0 1
1.23438 0.90625 1.57629 0 0 1
1.23438 0.914062 1.57738 0 0 1
1.23438 0.921875 1.57968 0 0 1
1.23438 0.929688 1.5812 0 0 1
1.23438 0.9375 1.58521 0 0 1
1.23438 0.945312 1.58972 0 0 1
1.23438 0.953125 1.60121 0 0 1
1.24219 0.664062 1.99572 0 0 1
1.24219 0.671875 1.98138 0 0 1
1.24219 0.679688 1.97303 0 0 1
1.24219 0.6875 1.96724 0 0 1
1.24219 0.695312 1.96185 0 0 1
1.24219 0.703125 1.95666 0 0 1
1.24219 0.710938 1.95357 0 0 1
1.24219 0.71875 1.94912 0 0 1
1.24219 0.726562 1.94456 0 0 1
1.24219 0.734375 1.94228 0 0 1
1.24219 0.742188 1.93824 0 0 1
1.24219 0.75 1.93443 0 0 1
1.24219 0.757812 1.93127 0 0 1
1.24219 0.765625 1.92993 0 0 1
1.24219 0.773438 1.92745 0 0 1
1.24219 0.78125 1.92592 0 0 1
1.24219 0.789062 1.92423 0 0 1
1.24219 0.796875 1.9234 0 0 1
1.24219 0.804688 1.92206 0 0 1
1.24219 0.8125 1.92181 0 0 1
1.24219 0.820312 1.92201 0 0 1
1.24219 0.828125 1.92181 0 0 1
1.24219 0.835938 1.92232 0 0 1
1.24219 0.84375 1.58976 0 0 1
1.24219 0.851562 1.59062 0 0 1
1.24219 0.859375 1.60802 0 0 1
1.24219 0.867188 1.61012 0 0 1
1.24219 0.875 1.61119 0 0 1
1.24219 0.882812 1.61165 0 0 1
1.24219 0.890625 1.5745 0 0 1
1.24219 0.898438 1.57403 0 0 1
1.24219 0.90625 1.57468 0 0 1
1.24219 0.914062 1.57544 0 0 1
1.24219 0.921875 1.57851 0 0 1
1.24219 0.929688 1.57861 0 0 1
1.24219 0.9375 1.58506 0 0 1
1.24219 0.945312 1.59336 0 0 1
1.24219 0.953125 1.60017 0 0 1
1.25 0.65625 1.99045 0 0 1
1.25 0.664062 1.97739 0 0 1
1.25 0.671875 1.97158 0 0 1
1.25 0.679688 1.96595 0 0 1
1.25 0.6875 1.96048 0 0 1
1.25 0.695312 1.95571 0 0 1
1.25 0.703125 1.95316 0 0 1
1.25 0.710938 1.94895 0 0 1
1.25 0.71875 1.94608 0 0 1
1.25 0.726562 1.94209 0 0 1
1.25 0.734375 1.938 0 0 1
1.25 0.742188 1.93598 0 0 1
1.25 0.75 1.93266 0 0 1
1.25 0.757812 1.93065 0 0 1
1.25 0.765625 1.92855 0 0 1
1.25 0.773438 1.92701 0 0 1
1.25 0.78125 1.92558 0 0 1
1.25 0.789062 1.92435 0 0 1
1.25 0.796875 1.92385 0 0 1
1.25 0.804688 1.92371 0 0 1
1.25 0.8125 1.9235 0 0 1
1.25 0.820312 1.92387 0 0 1
1.25 0.828125 1.58749 0 0 1
1.25 0.835938 1.58549 0 0 1
1.25 0.84375 1.59012 0 0 1
1.25 0.851562 1.60306 0 0 1
1.25 0.859375 1.60579 0 0 1
1.25 0.867188 1.60701 0 0 1
1.25 0.875 1.60805 0 0 1
1.25 0.882812 1.60544 0 0 1
1.25 0.890625 1.6054 0 0 1
1.25 0.898438 1.57099 0 0 1
1.25 0.90625 1.57223 0 0 1
1.25 0.914062 1.57352 0 0 1
1.25 0.921875 1.57675 0 0 1
1.25 0.929688 1.57975 0 0 1
1.25 0.9375 1.58317 0 0 1
1.25 0.945312 1.59054 0 0 1
1.25 0.953125 1.60784 0 0 1
1.25781 0.648438 1.98632 0 0 1
1.25781 0.65625 1.97536 0 0 1
1.25781 0.664062 1.9699 0 0 1
1.25781 0.671875 1.96466 0 0 1
1.25781 0.679688 1.95938 0 0 1
1.25781 0.6875 1.95673 0 0 1
1.25781 0.695312 1.95138 0 0 1
1.25781 0.703125 1.94948 0 0 1
1.25781 0.710938 1.94583 0 0 1
1.25781 0.71875 1.94223 0 0 1
1.25781 0.726562 1.94007 0 0 1
1.25781 0.734375 1.93776 0 0 1
1.25781 0.742188 1.93417 0 0 1
1.25781 0.75 1.93179 0 0 1
1.25781 0.757812 1.92972 0 0 1
1.25781 0.765625 1.92855 0 0 1
1.25781 0.773438 1.9273 0 0 1
1.25781 0.78125 1.92611 0 0 1
1.25781 0.789062 1.92485 0 0 1
1.25781 0.796875 1.92504 0 0 1
1.25781 0.804688 1.9248 0 0 1
1.25781 0.8125 1.92537 0 0 1
1.25781 0.820312 1.92534 0 0 1
1.25781 0.828125 1.58966 0 0 1
1.25781 0.835938 1.59721 0 0 1
1.25781 0.84375 1.59619 0 0 1
1.25781 0.851562 1.59861 0 0 1
1.25781 0.859375 1.59589 0 0 1
1.25781 0.867188 1.59991 0 0 1
1.25781 0.875 1.60085 0 0 1
1.25781 0.882812 1.60112 0 0 1
1.25781 0.890625 1.60157 0 0 1
1.25781 0.898438 1.56958 0 0 1
1.25781 0.90625 1.57062 0 0 1
1.25781 0.914062 1.57184 0 0 1
1.25781 0.921875 1.57517 0 0 1
1.25781 0.929688 1.57962 0 0 1
1.25781 0.9375 1.5834 0 0 1
1.25781 0.945312 1.59346 0 0 1
1.25781 0.953125 1.60178 0 0 1
1.26562 0.640625 1.9854 0 0 1
1.26562 0.648438 1.97459 0 0 1
1.26562 0.65625 1.96901 0 0 1
1.26562 0.664062 1.96388 0 0 1
1.26562 0.671875 1.95903 0 0 1
1.26562 0.679688 1.95537 0 0 1
1.26562 0.6875 1.95253 0 0 1
1.26562 0.695312 1.95 0 0 1
1.26562 0.703125 1.9465 0 0 1
1.26562 0.710938 1.9448 0 0 1
1.26562 0.71875 1.94138 0 0 1
1.26562 0.726562 1.93825 0 0 1
1.26562 0.734375 1.93642 0 0 1
1.26562 0.742188 1.93426 0 0 1
1.26562 0.75 1.9319 0 0 1
1.26562 0.757812 1.93004 0 0 1
1.26562 0.765625 1.92918 0 0 1
1.26562 0.773438 1.92777 0 0 1
1.26562 0.78125 1.92731 0 0 1
1.26562 0.789062 1.92653 0 0 1
1.26562 0.796875 1.92633 0 0 1
1.26562 0.804688 1.92713 0 0 1
1.26562 0.8125 1.9275 0 0 1
1.26562 0.820312 1.58983 0 0 1
1.26562 0.828125 1.59532 0 0 1
1.26562 0.835938 1.59129 0 0 1
1.26562 0.84375 1.59094 0 0 1
1.26562 0.851562 1.58971 0 0 1
1.26562 0.859375 1.59215 0 0 1
1.26562 0.867188 1.59421 0 0 1
1.26562 0.875 1.59689 0 0 1
1.26562 0.882812 1.59905 0 0 1
1.26562 0.890625 1.59907 0 0 1
1.26562 0.898438 1.59858 0 0 1
1.26562 0.90625 1.57012 0 0 1
1.26562 0.914062 1.61064 0 0 1
1.26562 0.921875 1.57439 0 0 1
1.26562 0.929688 1.57954 0 0 1
1.26562 0.9375 1.58625 0 0 1
1.26562 0.945312 1.62048 0 0 1
1.26562 0.953125 1.61401 0 0 1
1.27344 0.625 1.99992 0 0 1
1.27344 0.632812 1.98199 0 0 1
1.27344 0.640625 1.97409 0 0 1
1.27344 0.648438 1.96738 0 0 1
1.27344 0.65625 1.96274 0 0 1
1.27344 0.664062 1.95815 0 0 1
1.27344 0.671875 1.95473 0 0 1
1.27344 0.679688 1.95288 0 0 1
1.27344 0.6875 1.94953 0 0 1
1.27344 0.695312 1.94801 0 0 1
1.27344 0.703125 1.94527 0 0 1
1.27344 0.710938 1.94312 0 0 1
1.27344 0.71875 1.94036 0 0 1
1.27344 0.726562 1.93785 0 0 1
1.27344 0.734375 1.9357 0 0 1
1.27344 0.742188 1.93371 0 0 1
1.27344 0.75 1.9323 0 0 1
1.27344 0.757812 1.9306 0 0 1
1.27344 0.765625 1.92973 0 0 1
1.27344 0.773438 1.92926 0 0 1
1.27344 0.78125 1.92888 0 0 1
1.27344 0.789062 1.92941 0 0 1
1.27344 0.796875 1.92916 0 0 1
1.27344 0.804688 1.92939 0 0 1
1.27344 0.8125 1.59515 0 0 1
1.27344 0.820312 1.59441 0 0 1
1.27344 0.828125 1.59128 0 0 1
1.27344 0.835938 1.58815 0 0 1
1.27344 0.84375 1.58861 0 0 1
1.27344 0.851562 1.58571 0 0 1
1.27344 0.859375 1.58844 0 0 1
1.27344 0.867188 1.5911 0 0 1
1.27344 0.875 1.59141 0 0 1
1.27344 0.882812 1.59333 0 0 1
1.27344 0.890625 1.59426 0 0 1
1.27344 0.898438 1.5707 0 0 1
1.27344 0.90625 1.56986 0 0 1
1.27344 0.914062 1.59931 0 0 1
1.27344 0.921875 1.57719 0 0 1
1.27344 0.929688 1.61762 0 0 1
1.27344 0.9375 1.62162 0 0 1
1.27344 0.945312 1.59734 0 0 1
1.27344 0.953125 1.61218 0 0 1
1.28125 0.617188 1.99366 0 0 1
1.28125 0.625 1.9837 0 0 1
1.28125 0.632812 1.9729 0 0 1
1.28125 0.640625 1.96767 0 0 1
1.28125 0.648438 1.96286 0 0 1
1.28125 0.65625 1.95969 0 0 1
1.28125 0.664062 1.95601 0 0 1
1.28125 0.671875 1.95356 0 0 1
1.28125 0.679688 1.95063 0 0 1
1.28125 0.6875 1.94802 0 0 1
1.28125 0.695312 1.94655 0 0 1
1.28125 0.703125 1.94426 0 0 1
1.28125 0.710938 1.94225 0 0 1
1.28125 0.71875 1.94076 0 0 1
1.28125 0.726562 1.93802 0 0 1
1.28125 0.734375 1.93654 0 0 1
1.28125 0.742188 1.93448 0 0 1
1.28125 0.75 1.93255 0 0 1
1.28125 0.757812 1.93221 0 0 1
1.28125 0.765625 1.93171 0 0 1
1.28125 0.773438 1.93111 0 0 1
1.28125 0.78125 1.9314 0 0 1
1.28125 0.789062 1.93102 0 0 1
1.28125 0.796875 1.93233 0 0 1
1.28125 0.804688 1.93362 0 0 1
1.28125 0.8125 1.59403 0 0 1
1.28125 0.820312 1.59541 0 0 1
1.28125 0.828125 1.58988 0 0 1
1.28125 0.835938 1.58675 0 0 1
1.28125 0.84375 1.58638 0 0 1
1.28125 0.851562 1.58605 0 0 1
1.28125 0.859375 1.5844 0 0 1
1.28125 0.867188 1.58503 0 0 1
1.28125 0.875 1.58941 0 0 1
1.28125 0.882812 1.5881 0 0 1
1.28125 0.890625 1.59252 0 0 1
1.28125 0.898438 1.59476 0 0 1
1.28125 0.90625 1.59511 0 0 1
1.28125 0.914062 1.5975 0 0 1
1.28125 0.921875 1.60481 0 0 1
1.28125 0.929688 1.61546 0 0 1
1.28125 0.9375 1.62064 0 0 1
1.28125 0.945312 1.60985 0 0 1
1.28906 0.609375 1.99276 0 0 1
1.28906 0.617188 1.98207 0 0 1
1.28906 0.625 1.97411 0 0 1
1.28906 0.632812 1.96889 0 0 1
1.28906 0.640625 1.96289 0 0 1
1.28906 0.648438 1.95998 0 0 1
1.28906 0.65625 1.95718 0 0 1
1.28906 0.664062 1.95382 0 0 1
1.28906 0.671875 1.95168 0 0 1
1.28906 0.679688 1.94948 0 0 1
1.28906 0.6875 1.94806 0 0 1
1.28906 0.695312 1.94601 0 0 1
1.28906 0.703125 1.94475 0 0 1
1.28906 0.710938 1.94207 0 0 1
1.28906 0.71875 1.94011 0 0 1
1.28906 0.726562 1.93891 0 0 1
1.28906 0.734375 1.93708 0 0 1
1.28906 0.742188 1.93555 0 0 1
1.28906 0.75 1.93491 0 0 1
1.28906 0.757812 1.93424 0 0 1
1.28906 0.765625 1.93322 0 0 1
1.28906 0.773438 1.93361 0 0 1
1.28906 0.78125 1.93332 0 0 1
1.28906 0.789062 1.93449 0 0 1
1.28906 0.796875 1.93581 0 0 1
1.28906 0.804688 1.58991 0 0 1
1.28906 0.8125 1.59068 0 0 1
1.28906 0.820312 1.5907 0 0 1
1.28906 0.828125 1.58682 0 0 1
1.28906 0.835938 1.58641 0 0 1
1.28906 0.84375 1.58267 0 0 1
1.28906 0.851562 1.5845 0 0 1
1.28906 0.859375 1.58289 0 0 1
1.28906 0.867188 1.58886 0 0 1
1.28906 0.875 1.58898 0 0 1
1.28906 0.882812 1.58358 0 0 1
1.28906 0.890625 1.58211 0 0 1
1.28906 0.898438 1.59134 0 0 1
1.28906 0.90625 1.59255 0 0 1
1.28906 0.914062 1.59575 0 0 1
1.28906 0.921875 1.60895 0 0 1
1.28906 0.929688 1.61718 0 0 1
1.28906 0.9375 1.59528 0 0 1
1.28906 0.945312 1.61202 0 0 1
1.29688 0.601562 1.99178 0 0 1
1.29688 0.609375 1.98339 0 0 1
1.29688 0.617188 1.97541 0 0 1
1.29688 0.625 1.9689 0 0 1
1.29688 0.632812 1.96574 0 0 1
1.29688 0.640625 1.96105 0 0 1
1.29688 0.648438 1.95726 0 0 1
1.29688 0.65625 1.95526 0 0 1
1.29688 0.664062 1.95199 0 0 1
1.29688 0.671875 1.95072 0 0 1
1.29688 0.679688 1.94905 0 0 1
1.29688 0.6875 1.94803 0 0 1
1.29688 0.695312 1.94626 0 0 1
1.29688 0.703125 1.94494 0 0 1
1.29688 0.710938 1.94313 0 0 1
1.29688 0.71875 1.94142 0 0 1
1.29688 0.726562 1.93918 0 0 1
1.29688 0.734375 1.93823 0 0 1
1.29688 0.742188 1.93719 0 0 1
1.29688 0.75 1.93677 0 0 1
1.29688 0.757812 1.93625 0 0 1
1.29688 0.765625 1.93625 0 0 1
1.29688 0.773438 1.9363 0 0 1
1.29688 0.78125 1.93729 0 0 1
1.29688 0.789062 1.93712 0 0 1
1.29688 0.796875 1.9394 0 0 1
1.29688 0.804688 1.59415 0 0 1
1.29688 0.8125 1.58845 0 0 1
1.29688 0.820312 1.58747 0 0 1
1.29688 0.828125 1.58707 0 0 1
1.29688 0.835938 1.58676 0 0 1
1.29688 0.84375 1.58518 0 0 1
1.29688 0.851562 1.57744 0 0 1
1.29688 0.859375 1.58697 0 0 1
1.29688 0.867188 1.59017 0 0 1
1.29688 0.875 1.58568 0 0 1
1.29688 0.882812 1.58421 0 0 1
1.29688 0.890625 1.58234 0 0 1
1.29688 0.898438 1.58714 0 0 1
1.29688 0.90625 1.58796 0 0 1
1.29688 0.921875 1.60881 0 0 1
1.29688 0.929688 1.58892 0 0 1
1.29688 0.9375 1.60664 0 0 1
1.30469 0.59375 1.99065 0 0 1
1.30469 0.601562 1.98028 0 0 1
1.30469 0.609375 1.97504 0 0 1
1.30469 0.617188 1.97013 0 0 1
1.30469 0.625 1.96694 0 0 1
1.30469 0.632812 1.96328 0 0 1
1.30469 0.640625 1.95896 0 0 1
1.30469 0.648438 1.95653 0 0 1
1.30469 0.65625 1.95371 0 0 1
1.30469 0.664062 1.95143 0 0 1
1.30469 0.671875 1.95007 0 0 1
