-0.0908934 -0.520814 0.112943 -0.608033 -0.339654 0.717587
0.195225 -0.190328 0.078613 0.8092 0.125551 -0.573962
-0.0189031 -0.422352 0.00751665 0.292577 0.197926 -0.935534
0.224276 -0.374682 0.0893184 0.99963 0.00927846 0.0255799
-0.0192664 -1.03403 0.00534187 0.788139 0.205233 0.580273
-0.103316 -0.382911 0.151236 -0.755483 -0.135454 0.641014
0.178893 0.237914 0.200884 0.315515 0.277438 0.907457
-0.0780456 -1.07503 0.00566204 -0.800015 0.599523 0.0234185
0.418769 -0.341894 0.0894865 0.967098 0.149042 0.206175
0.121006 -0.595698 0.0742924 -0.924991 -0.305221 0.226344
-0.102376 -0.426653 0.0373301 -0.891101 -0.00489085 -0.453779
-0.055851 0.316123 0.152898 -0.00309931 0.589498 0.807764
0.0176297 0.506524 0.272178 -0.867556 -0.00964997 0.497247
-0.0532624 0.0545348 0.172436 -0.682461 -0.136602 0.718044
-0.229738 -0.133092 0.0604572 0.865636 -0.497551 -0.0558252
0.194024 0.0348477 0.138659 0.93678 -0.0601563 0.344709
0.302368 0.229334 0.156181 0.938172 0.346163 0.00190281
0.359388 -0.0501154 0.0924239 0.449068 0.220752 0.865798
-0.0896522 -0.465399 0.141416 -0.69575 -0.287387 0.658286
0.226888 -0.632034 0.0264662 0.955586 -0.05257 0.289987
-0.0110125 -0.0255879 0.218149 -0.659375 0.0399132 0.750754
-0.153007 0.238363 0.0885586 -0.671137 0.399162 -0.624695
0.361096 -0.150978 0.0999189 -0.161132 -0.0496186 0.985685
-0.0103282 -0.538139 -0.00117881 0.701714 0.0995151 -0.705475
-0.0143424 -0.877701 0.0104766 0.885784 -0.0818908 0.456815
0.193906 -0.829513 -0.0477007 0.299996 -0.175642 -0.937631
0.185147 -0.333213 0.177216 0.598355 -0.00982362 0.801171
-0.342656 -0.363659 0.0544585 0.0293825 -0.294948 -0.955062
-0.0538971 0.0244165 0.172062 -0.660263 0.119359 0.741489
0.16154 -0.177736 0.0332372 0.775907 0.228017 -0.588198
0.209978 -0.733522 0.0581481 0.602247 -0.0233545 0.797968
0.0841349 0.401971 0.297294 0.444245 -0.488663 0.750903
-0.0220486 0.0950083 0.017309 -0.12785 -0.141211 -0.981689
-0.118541 -0.346439 0.129267 -0.948096 0.0163036 0.317565
-0.366028 -0.434843 0.11835 0.28219 -0.749549 0.598786
0.196012 0.254597 0.0398319 0.46884 0.368286 -0.802841
-0.106076 -0.103469 0.092503 -0.973527 0.165282 -0.157882
-0.0964862 -1.15079 0.0694976 0.147945 -0.987235 -0.0589902
0.211934 -0.28904 0.0762754 0.838155 0.264838 -0.47682
0.372381 -0.365401 0.12909 -0.970668 -0.212969 0.111565
-0.0153971 -0.772259 0.0208946 0.819857 0.0114157 0.572454
0.160614 -0.0500153 0.192458 0.575527 0.234457 0.783453
0.206765 -0.740835 -0.045572 0.657213 0.181738 -0.731466
0.040973 -0.325839 0.0328461 0.202233 -0.978778 -0.0331041
-0.0847363 -0.760164 -0.0474715 -0.72832 0.0761732 -0.68099
-0.0306088 -0.529087 0.121991 0.37031 -0.336475 0.865826
0.105833 0.335016 0.208478 0.637932 -0.181881 0.748306
-0.169401 0.0695058 0.136196 0.0605816 -0.302396 0.951255
-0.0280785 -0.677717 -0.0323247 0.747117 0.193504 -0.635903
-0.00575246 0.0419639 0.028219 -0.126222 -0.284028 -0.950472
0.233487 0.122472 0.0829268 -0.890118 0.0847833 -0.447775
0.233924 0.128484 0.136582 -0.93225 -0.336972 0.131759
0.375153 -0.28799 0.0990524 -0.912212 0.00862746 0.409627
0.167368 -0.16184 0.187814 0.394312 -0.0401503 0.918099
0.19415 -0.402148 0.0313026 0.666541 0.170713 -0.725658
-0.000545949 -0.653375 -0.00295628 0.815003 -0.143913 -0.561302
0.200129 -0.46944 0.0226206 0.807201 0.149665 -0.570987
0.00563417 -0.30871 0.000422795 -0.176405 -0.532966 -0.827544
0.24066 0.147601 0.162182 -0.380507 -0.363741 0.850239
-0.35031 -0.432053 0.0491451 0.127869 0.102844 -0.986444
0.0770977 0.615089 0.195175 -0.22691 0.970719 -0.0788487
0.0525814 -0.285343 -0.00548511 0.00402503 -0.199672 -0.979855
-0.0932425 -0.628383 0.0391162 -0.872885 -0.0961537 0.478358
0.0171866 0.365717 0.180794 -0.978061 0.0157383 0.207721
0.0974511 -0.167394 0.202902 0.21395 -0.121918 0.969207
0.168232 -1.14273 0.0361102 -0.314896 -0.944783 0.0906923
0.133434 -0.104332 0.208702 0.360217 -0.130119 0.923749
-0.166377 0.119572 0.147028 -0.449982 -0.120139 0.88492
-0.345013 -0.346026 0.144354 -0.934398 0.0635003 -0.350526
0.207393 -0.517719 0.112354 0.830847 -0.285806 0.477503
0.0825768 0.22378 0.0328986 -0.0602939 0.352034 -0.934043
0.0478039 -0.270472 0.214929 -0.120013 0.323051 0.938741
-0.0804613 0.066457 0.140949 -0.925795 -0.0343024 0.376466
0.216831 -0.801653 0.0491526 0.635322 -0.137227 0.759957
0.168842 0.172741 0.220182 0.276643 0.0337323 0.960381
0.0100287 -0.224519 -0.0155315 0.0239909 0.00458844 -0.999702
-0.0638906 -0.652524 -0.0301198 -0.331537 0.32886 -0.884271
0.12405 -0.363898 0.175813 -0.310476 -0.205339 0.928138
-0.103401 0.139739 0.064799 -0.966753 -0.193577 -0.16708
0.180303 -1.15209 0.169659 -0.133535 -0.986788 -0.0917531
0.176749 -0.0140212 0.0859719 0.754225 -0.216578 -0.61987
-0.0144657 -0.121673 0.214311 -0.396407 -0.15926 0.904156
-0.0956514 0.0955909 0.0859464 -0.988689 -0.142529 -0.046691
0.153672 -0.219094 0.0134701 0.680988 0.131782 -0.720339
0.00565184 -0.35525 0.0288335 0.425098 0.167141 -0.889582
-0.122531 -0.31669 0.118066 -0.953281 -0.0404239 0.299369
0.312011 -0.0625716 0.0258954 -0.480349 -0.133435 -0.866868
0.155666 -1.1173 0.125788 -0.90658 0.370791 0.20156
0.168854 0.288601 0.182893 0.220634 0.814434 0.536673
0.198151 -0.54816 0.111847 0.794312 -0.263775 0.547259
-0.0338429 -0.195655 -0.00551819 -0.322033 0.196102 -0.926196
-0.0351327 -1.08388 -0.0610649 -0.702008 0.34233 -0.624496
0.229627 -1.15064 0.0990438 0.0973132 -0.989255 -0.109105
0.151574 -0.511988 -0.00473564 -0.144759 0.119535 -0.98222
0.0213836 -0.473698 0.0737579 0.940898 -0.232855 0.245944
0.142774 -0.300387 0.188606 -0.117743 0.115363 0.98632
0.169466 -0.695351 -0.0405717 -0.186134 0.274417 -0.943424
0.00226573 -0.0275688 0.0421015 -0.102327 0.0124706 -0.994673
0.155778 0.512909 0.21985 0.992768 -0.0642348 0.101418
0.206541 -0.443799 0.14313 0.575726 -0.19907 0.793039
0.14046 0.204793 0.016487 -0.419441 0.082761 -0.904002
0.0377567 0.600903 0.208509 -0.509913 0.845906 0.156307
0.157495 -1.13448 0.170768 -0.701267 0.648621 0.29583
0.383488 -0.353027 0.0589674 -0.92573 -0.363201 0.1054
0.0659593 0.0318364 0.0341478 -0.349839 -0.183166 -0.918729
0.402304 -0.22779 0.0825607 0.944703 0.153297 0.289892
-0.0845564 0.0261593 0.0806218 -0.829226 -0.195397 -0.523645
-0.122593 0.0827538 0.081933 0.90303 -0.412122 -0.121213
0.12539 0.0113655 0.0397934 0.380452 -0.239447 -0.893265
0.0738558 0.102221 0.0222602 -0.313237 -0.0814243 -0.946178
0.0908281 -0.477769 0.0691949 -0.946215 -0.298279 0.125326
0.02887 -0.402627 0.104482 0.849749 -0.248243 0.465083
-0.14727 0.185595 0.177374 -0.399719 -0.346813 0.848496
0.024612 -0.182983 0.20668 -0.382681 0.0263144 0.923506
0.362534 -0.0973039 0.0975218 0.38118 0.0908971 0.920021
0.0522405 0.385172 0.285677 -0.603916 -0.347541 0.717287
0.144986 -1.01375 -0.0123523 -0.9996 -0.00477524 0.0278646
0.00347892 -0.00426432 0.227265 -0.511579 0.0552402 0.857459
-0.0527825 -1.00198 0.0155711 -0.289247 -0.0925767 0.952767
-0.0499068 -0.468146 -0.00612039 -0.128416 0.182622 -0.974761
0.215703 -0.869833 0.0370993 0.572084 -0.153742 0.805657
0.375065 -0.269237 0.0500416 -0.490254 -0.370359 -0.788978
-0.157884 0.0138155 0.0710883 0.838812 -0.456783 -0.296215
0.218442 -0.299815 0.126758 0.969906 0.0795633 0.230113
0.143435 -1.10034 0.0631888 -0.966838 0.141968 0.212296
-0.0726935 -0.133951 0.189841 -0.350056 -0.167714 0.921593
-0.106818 -0.113053 0.131026 -0.977185 0.138976 0.160611
-0.283585 -0.0794445 0.0421486 -0.790561 0.243854 -0.561737
0.0573347 0.397381 0.127921 -0.107729 0.350371 -0.930395
-0.101031 -1.14191 0.133787 -0.940957 0.293713 -0.168324
0.156819 0.252235 0.0243589 -0.271921 0.37273 -0.887204
0.118215 -0.0990961 0.0314423 0.145422 0.279746 -0.948996
0.210003 -0.934578 -0.0142562 0.830425 -0.170231 -0.530486
0.0465919 -0.100662 0.0292379 0.0701454 0.324033 -0.943442
0.343358 0.0216758 0.0633135 0.915484 0.317274 -0.247438
-0.275698 -0.0343107 0.0785435 -0.928799 0.324076 0.179744
-0.051022 -0.235055 0.187052 -0.259831 0.0795229 0.962374
0.105997 -0.551471 0.0541487 -0.977572 -0.190368 -0.0900769
-0.031092 -0.351067 0.173325 0.394604 -0.0985819 0.913548
-0.201295 0.0460485 0.122492 -0.411681 -0.160553 0.897074
0.335391 -0.15894 0.0848701 -0.673369 -0.297995 0.676589
-0.0380981 0.0302301 0.0397562 -0.25556 -0.382781 -0.887788
0.194608 -0.995124 -0.0193834 0.742261 -0.156769 -0.651515
0.19399 -0.58572 0.0970277 0.749711 -0.260055 0.608527
-0.010168 0.469361 0.184482 -0.957202 -0.0241393 0.288412
-0.30208 -0.20113 0.0406717 -0.2603 -0.0946193 -0.96088
0.197566 -0.125486 0.138039 0.978993 0.00415534 0.20385
0.0536816 -0.141059 0.220608 -0.0649852 -0.341929 0.937476
0.158522 -0.863818 -0.0420821 -0.393519 -0.114021 -0.912218
0.0727203 0.474266 0.12485 -0.0810003 -0.34268 -0.935954
0.31196 -0.010322 0.0270665 -0.313087 0.099894 -0.944456
-0.0817593 -0.830929 -0.0489817 -0.684297 -0.0657036 -0.726237
0.287614 -0.045385 0.0799552 -0.91079 -0.287228 0.296582
0.19958 -0.923065 0.0351978 0.565495 -0.140748 0.812653
-0.318956 -0.238638 0.0492311 0.0411724 -0.2281 -0.972767
0.225421 0.265865 0.0673265 0.574933 0.403511 -0.711781
0.122676 -0.266184 0.194775 0.247952 -0.199811 0.947943
-0.113273 -0.463361 0.107625 -0.954053 -0.197668 0.225191
0.0764254 -0.326856 0.155444 -0.557176 -0.214548 0.8022
0.145312 -0.935408 0.0150581 -0.94544 -0.0852127 0.314456
0.192202 0.0798728 0.0491393 0.645795 -0.375937 -0.664546
-0.213432 0.0722495 0.0589369 -0.699957 0.429709 -0.570447
0.133113 -0.503628 0.134368 -0.509699 -0.335847 0.792094
0.00760332 0.450684 0.225671 -0.972402 -0.225765 -0.0588537
0.0598579 -0.0872688 0.232943 -0.207478 0.0506483 0.976928
-0.111632 -0.312908 0.0544825 -0.941989 0.0458452 -0.332498
0.212436 -0.239022 0.126797 0.980464 0.168945 0.100734
0.214369 0.0911912 0.101888 0.915534 -0.368011 0.162378
0.0392601 -0.347711 0.1081 0.959847 -0.246115 0.134616
0.14039 0.588491 0.212319 0.70512 0.708352 -0.0323058
0.108213 0.494215 0.307169 0.548222 0.141576 0.824263
-0.021744 -0.935473 0.00572973 0.560455 -0.146734 0.815082
0.373288 -0.332736 0.0751559 -0.836377 -0.424592 -0.346692
0.208121 0.14866 0.177346 0.725625 -0.687941 0.0143653
-0.0916408 -0.188042 0.0558515 -0.772878 -0.0639787 -0.631321
0.238713 0.301545 0.157727 0.385576 0.890473 0.241639
0.173465 -0.852784 0.0479919 -0.555917 -0.116567 0.823024
0.136882 -0.594321 0.100861 -0.671885 -0.281587 0.685039
0.293858 0.0465357 0.134493 -0.0662045 -0.320171 0.945044
-0.112732 -0.476232 0.0705004 -0.959305 -0.0984269 -0.264664
-0.169576 0.245098 0.130526 -0.869354 0.412703 -0.271846
0.135921 -1.12536 -0.0134294 -0.991017 0.128734 0.036226
0.1394 -0.862492 0.0174036 -0.962397 -0.0862803 0.257582
0.00534203 0.358634 0.146339 -0.41469 0.492839 0.764945
0.02258 0.530048 0.147636 -0.796304 0.079094 -0.599703
-0.0389411 0.242284 0.198303 -0.122554 0.380903 0.916457
0.139055 -0.432669 0.00954494 -0.13805 0.179262 -0.974067
-0.0807106 -0.0413494 0.0784876 -0.813409 0.278251 -0.510825
-0.115218 -0.179442 0.12534 -0.968103 0.240352 -0.0707693
0.343488 -0.175134 0.03297 -0.403826 -0.236555 -0.883723
0.132528 0.0494541 0.0304891 0.269735 -0.266945 -0.925194
0.113419 0.589367 0.154535 0.485252 0.706537 -0.515107
0.394874 -0.388663 0.140025 0.971805 0.10378 -0.211719
0.20552 -0.19603 0.143018 0.91319 0.159228 0.375141
0.112843 0.103384 0.0165076 0.0318683 -0.117793 -0.992527
0.22432 -1.13054 0.123053 0.350928 0.895901 0.272416
-0.0579993 -0.365757 0.176447 0.120939 -0.103307 0.98727
0.146928 0.518225 0.256674 0.903294 -0.110556 0.414532
0.0436322 -0.333468 0.157537 -0.260919 -0.950434 0.169104
0.136437 -0.875488 -0.00620279 -0.982532 -0.128546 -0.13456
0.0229992 -0.277804 -0.00889276 0.0894368 -0.157955 -0.983388
-0.0961533 0.236763 0.047832 -0.402111 0.252386 -0.880118
0.105527 -0.460149 0.02562 -0.760861 -0.0350209 -0.647969
-0.08935 0.138686 0.140331 -0.93284 -0.0939359 0.347831
0.0232033 0.448779 0.279184 -0.693266 -0.0332141 0.719916
-0.127737 0.270221 0.0877965 -0.619528 0.581405 -0.527402
0.00058081 0.0711698 0.223097 -0.454653 -0.212382 0.864977
0.147344 -0.774984 -0.0430529 -0.753701 0.129272 -0.644378
0.320038 0.121934 0.0894694 0.971469 0.190603 -0.141135
0.133137 0.202449 0.223278 0.155639 0.242858 0.957495
0.399502 -0.280532 0.0541452 0.151917 -0.056073 -0.986802
0.312648 -0.0977447 0.0837253 -0.666542 -0.157742 0.728587
0.202107 0.0475061 0.0944101 0.903322 -0.313111 -0.293207
0.203221 -0.648264 -0.0162559 0.513196 0.2598 -0.818006
0.0887384 -0.0309914 0.231206 0.320102 -0.0673378 0.944987
0.128553 0.0357529 0.210488 0.566634 0.00126891 0.823969
0.388046 -0.140091 0.0511272 0.956148 0.136268 -0.259252
-0.322606 -0.317725 0.0435756 0.652063 -0.0576417 -0.75597
0.131056 0.540598 0.277316 0.756989 0.232037 0.610841
0.115885 0.418611 0.152163 0.832039 0.0609481 -0.551358
-0.280373 -0.197462 0.0419057 0.444868 -0.444949 -0.777247
0.121216 -0.422146 0.0156263 -0.536343 0.0857639 -0.839631
-0.0710261 -0.158964 0.0346349 -0.662163 0.236817 -0.710956
-0.296812 -0.182167 0.0996675 0.223566 -0.0462992 0.973589
0.030795 -0.168955 0.208688 0.0346896 -0.466049 0.884079
0.16796 -0.803699 -0.0538952 -0.102296 -0.050468 -0.993473
-0.0318609 -0.0262297 0.0486933 -0.313273 0.0629713 -0.947573
0.139494 -1.09198 0.0108457 -0.99478 0.0397797 -0.093974
-0.204929 -0.0249092 0.0943888 -0.0971218 -0.205605 0.973804
0.133564 -0.660339 0.0392736 -0.900084 -0.22715 0.371821
0.100141 -0.166298 0.000638413 0.132254 0.374088 -0.917914
0.229984 0.157932 0.059282 0.801677 -0.114281 -0.586732
0.0502054 0.0900748 0.0273849 0.27431 -0.15328 -0.949347
0.0835378 -0.442749 0.0924141 -0.879513 -0.333116 0.339838
0.0511518 -0.0332432 0.0456994 -0.317725 0.0631647 -0.946076
0.0784534 -0.000553107 0.0366501 -0.247887 -0.14341 -0.958115
-0.302891 -0.146746 0.0918405 -0.741324 0.284559 0.607836
0.220586 -0.831415 -0.0248451 0.839227 -0.115445 -0.531386
-0.0990995 -0.354048 0.0368973 -0.626772 0.0411813 -0.778114
-0.0611137 -0.882276 0.0305361 -0.2388 -0.190298 0.95224
0.0802074 0.198034 0.223357 -0.159677 0.233683 0.959112
0.00360811 0.549701 0.207642 -0.97332 0.228405 0.0219057
0.243958 0.182983 0.193686 0.00768419 -0.458663 0.888577
-0.0591745 -0.894512 -0.0560225 -0.276887 -0.0563469 -0.959249
0.191698 -0.322887 0.043355 0.712101 0.083742 -0.697065
-0.0289843 -0.946252 -0.0541837 0.294263 0.0351547 -0.955078
0.0210954 0.150259 0.237201 0.0521347 0.124582 0.990839
0.104256 0.592724 0.259855 0.415387 0.772537 0.48025
-0.155276 0.0795154 0.047651 0.342723 -0.0327579 -0.938865
0.204915 -0.718354 0.0624135 0.602247 -0.0233545 0.797968
0.0673266 -0.191295 -0.0108148 0.0258679 0.122731 -0.992103
0.314498 0.0574319 0.0467975 0.208848 0.332336 -0.919748
-0.0946234 -0.259327 0.167654 -0.636907 -0.0824037 0.766524
-0.0317244 -0.164186 0.00369392 -0.306481 0.383374 -0.87126
-0.0990299 -0.710688 -0.0118009 -0.933406 0.1748 -0.313365
-0.0486196 -0.0526192 0.195248 -0.449703 0.326098 0.831521
0.0624562 0.599396 0.256763 -0.214654 0.855169 0.471816
0.403147 -0.408293 0.0508633 -0.458121 -0.374337 0.806224
-0.0578506 -0.104875 0.0341983 -0.494787 0.330432 -0.803742
-0.0998993 -1.10998 0.0736211 -0.549239 0.765142 0.335997
0.21966 -0.488054 0.0617895 0.96725 -0.0431968 -0.250124
0.358029 -0.234572 0.0869529 -0.806323 -0.17858 0.563873
0.0463204 0.569291 0.140488 -0.421284 0.476788 -0.771488
0.0441863 0.317212 0.197006 -0.445706 -0.370952 0.814703
0.255255 0.0934115 0.0610993 -0.616584 -0.0444698 -0.786032
-0.306197 -0.162567 0.0452049 -0.767309 0.160674 -0.620823
-0.0659175 0.115085 0.0244071 -0.522586 -0.160178 -0.837405
0.0442366 0.152428 0.0157769 0.175085 -0.0140509 -0.984453
0.352394 -0.0147763 0.0447743 0.77978 0.342173 -0.524272
-0.272456 -0.131493 0.0257443 -0.265545 -0.0324024 -0.963554
-0.090359 -0.0221276 0.132179 -0.939248 0.184025 0.289739
-0.0494171 -0.304494 0.179183 0.0840481 0.0228995 0.996199
0.0350871 -0.363952 0.0680706 0.930169 0.0357971 -0.365383
-0.0264678 0.345041 0.105438 -0.275485 0.938986 -0.205944
-0.150463 0.25999 0.182633 -0.653434 0.267474 0.708153
0.341783 -0.140554 0.0266709 -0.100754 -0.139198 -0.985126
-0.138726 0.28709 0.130218 -0.705128 0.653385 -0.275468
-0.108694 -0.167337 0.0909723 -0.963945 0.0994818 -0.246808
-0.0141462 -1.05368 -0.0552074 0.788103 0.0511447 -0.613415
0.135991 0.363135 0.156877 0.760718 0.620756 0.189658
0.132919 0.317569 0.0692856 -0.126952 0.461739 -0.877884
-0.0357904 -0.104655 0.0262157 -0.276737 0.389816 -0.878328
0.0209351 0.26711 0.20029 -0.150304 -0.0737377 0.985886
-0.0520952 0.0904187 0.181726 -0.720449 -0.320137 0.615195
-0.0015528 -0.0953147 0.0283977 0.0285335 0.398919 -0.916542
0.0514806 0.553414 0.295177 -0.406052 0.385536 0.828543
0.0847626 0.340866 0.0897795 -0.0545284 0.628414 -0.775966
0.107186 -0.521986 0.0294731 -0.820471 -0.0235106 -0.571205
0.144186 0.535616 0.154328 0.857077 0.0394102 -0.513679
0.197128 -0.139817 0.0970386 0.96714 -0.225861 -0.116738
0.160692 -0.552911 0.123102 -0.136548 -0.394256 0.9088
-0.0158261 -0.553468 0.104771 0.402022 -0.194038 0.894834
0.00736778 -0.548742 0.071186 0.911056 -0.185021 0.368434
0.0500249 0.604212 0.175056 -0.536763 0.83167 -0.142168
0.160973 -0.720943 0.0535298 -0.62381 -0.172531 0.762296
-0.0111587 0.293676 0.177641 -0.274492 0.730925 0.624822
-0.255924 -0.0832769 0.0214491 -0.112028 -0.102676 -0.988386
0.188244 -0.14837 0.166402 0.909563 0.0928865 0.405051
-0.0378878 -0.530248 -0.0139287 0.223006 0.0598487 -0.972978
-0.00247011 -0.673188 -0.0011924 0.824471 -0.12221 -0.552552
-0.0294654 0.00869587 0.196877 -0.701279 0.18241 0.689155
0.22387 -0.446468 0.106976 0.999407 -0.0343501 -0.0021843
0.189454 0.134501 0.0273466 0.400835 -0.179842 -0.898325
-0.104799 0.216787 0.195681 -0.0699638 -0.164273 0.983931
0.0693794 0.33635 0.222791 -0.275943 -0.611249 0.741775
0.308109 0.12484 0.140589 0.720245 -0.209049 0.661472
0.0693443 0.356588 0.259756 -0.040822 -0.99731 -0.0608753
0.0322343 0.365812 0.114746 -0.202808 0.709049 -0.675365
0.299017 0.138 0.0710127 0.58446 0.343211 -0.735264
0.115841 -0.268545 -0.00484423 0.104448 -0.203856 -0.973413
0.0786537 -0.241301 -0.0122145 0.0871656 -0.0948924 -0.991664
0.0695403 -0.373394 0.0709888 -0.901568 0.0107722 -0.432502
0.212187 -0.232888 0.107076 0.994817 0.100532 -0.0152655
0.21514 -0.586181 0.021458 0.715713 0.219939 -0.662859
-0.0826891 -0.063904 0.17735 -0.633387 0.174264 0.753958
-0.0314164 0.331102 0.0730977 -0.300611 0.835496 -0.459978
0.19512 -0.0571544 0.135071 0.995946 0.0898253 0.00470359
-0.0032014 -0.363892 0.157284 0.549975 -0.210145 0.808311
0.13694 0.49187 0.147614 0.78173 -0.191974 -0.593332
-0.351123 -0.33075 0.121314 -0.619468 -0.208082 0.756942
0.0733506 0.298595 0.0665946 -0.0740642 0.467936 -0.880653
-0.00739727 -0.286834 0.17648 -0.674812 -0.705191 0.217566
0.0854495 0.452312 0.306495 0.881688 0.150639 0.447139
0.144261 0.437642 0.214301 0.929805 -0.285494 0.232282
-0.0560285 0.194103 0.213322 -0.345676 0.194898 0.91789
-0.0252195 -1.0872 0.0230155 0.890086 0.1261 0.438002
-0.12894 -1.15144 0.105329 0.574797 -0.148808 0.804652
-0.0731502 -0.00194839 0.158166 -0.815445 0.177143 0.551062
-0.0726806 -1.13479 0.128157 0.721118 0.342448 0.602261
0.247243 0.0745 0.112639 -0.809811 -0.40759 0.421991
-0.085539 -0.255251 0.0316164 -0.687249 0.135407 -0.713691
0.227549 -0.673926 0.0246343 0.959507 0.0668963 0.273625
0.174687 -0.492613 0.147339 0.0278073 -0.323669 0.945762
0.160571 -0.873488 0.0366831 -0.537841 -0.105669 0.836397
0.229768 -0.819752 0.0231442 0.94145 -0.148798 0.302542
0.145406 -1.02719 0.0226293 -0.924861 0.249208 0.287277
0.200546 0.283767 0.180399 -0.102573 0.564094 0.819315
-0.0532781 0.167193 0.0122968 -0.296899 -0.041749 -0.953996
-0.0112293 -0.599862 0.0831991 0.694083 -0.23185 0.681538
-0.351887 -0.265523 0.0853222 -0.983334 0.181777 -0.00339941
0.0861404 -0.379291 0.143108 -0.664028 -0.328622 0.67162
-0.155355 0.200193 0.0717609 -0.53041 0.227366 -0.816682
-0.0857512 -0.567293 0.0949429 -0.483259 -0.37037 0.793276
0.18399 0.198364 0.212633 0.342458 0.221968 0.912936
0.0368354 0.258417 0.0413424 0.260308 0.334358 -0.905784
0.202839 0.287125 0.0627162 0.519365 0.399333 -0.755509
0.174923 -0.0812303 0.188665 0.8297 -0.00164 0.558207
-0.106338 -0.771536 -0.0120249 -0.998742 -0.0484765 0.0128535
0.268674 0.274008 0.129337 0.720122 0.527947 -0.450218
0.118255 -0.227398 0.195852 0.239909 0.0978095 0.965856
-0.0463724 -1.13706 -0.0638582 -0.474227 -0.362375 -0.802367
0.164559 -1.07131 -0.0382743 0.750175 0.246817 -0.613449
0.179301 -0.366309 0.178495 0.587135 -0.0829614 0.805227
-0.109663 -0.170444 0.147186 -0.962117 0.162302 0.219065
-0.361348 -0.345161 0.072193 -0.895704 -0.0338594 -0.44336
0.331882 0.0754231 0.0849899 0.929485 0.238316 -0.281536
-0.0142504 -0.180974 0.198698 -0.269932 -0.227895 0.935521
0.123603 -0.426431 0.159101 -0.335627 -0.274822 0.901015
0.205003 -1.13725 0.160187 0.247834 0.936854 0.246746
-0.0675164 -1.09185 -0.0301122 -0.865716 0.188773 -0.463574
0.150602 0.142362 0.0171914 0.0284397 -0.153255 -0.987777
0.409755 -0.429759 0.0885029 -0.951396 -0.242678 -0.189611
0.0296029 0.346827 0.0910518 -0.034646 0.812517 -0.581906
0.188692 -0.0204498 0.143293 0.962994 0.0680448 0.260794
0.0379922 0.506086 0.299964 -0.639902 0.169138 0.749612
-0.109532 -0.20375 0.0722784 -0.96305 0.120883 -0.240669
0.151722 0.28106 0.0416958 -0.0921277 0.489299 -0.867236
-0.012268 -0.740454 -0.0342101 0.847991 0.207594 -0.487664
-0.29603 -0.131051 0.0393168 -0.722882 0.12106 -0.680284
-0.192518 -0.0673685 0.0654102 0.919783 -0.381781 -0.0907906
-0.354299 -0.282398 0.083108 -0.980499 0.191252 -0.0452231
-0.105102 -0.140489 0.149051 -0.956306 0.120421 0.266416
0.249612 0.119955 0.153689 -0.376756 -0.384616 0.842689
-0.0757451 -0.500693 0.134798 -0.142362 -0.378019 0.914787
0.107208 -0.277258 0.197215 0.531897 -0.65085 0.541738
-0.145463 0.0378837 0.0919346 0.866587 -0.46799 0.173239
0.0513096 -0.327093 0.0919066 -0.956659 -0.247787 -0.15299
-0.0984539 -0.84618 0.0093908 -0.811256 -0.16549 0.560782
0.170118 -0.520722 -0.00678412 0.333352 0.139826 -0.932376
-0.0803564 -0.790864 -0.053631 -0.685891 -0.0584018 -0.725357
-0.0820285 -0.119886 0.183287 -0.631442 -0.00168811 0.775422
-0.0247081 0.263299 0.0228433 -0.240297 0.380669 -0.892944
0.144154 -0.0309584 0.199128 0.503374 0.0209658 0.863814
0.20384 -0.848395 0.0496141 0.572084 -0.153742 0.805657
0.205776 -0.766553 0.0607565 0.529355 -0.0265527 0.847985
0.203263 -0.668704 0.0712343 0.777523 -0.0797328 0.62378
0.0192023 -0.380298 0.132271 0.821259 -0.230381 0.521974
0.120012 0.356513 0.107775 0.0936021 0.749284 -0.655601
-0.0335227 -0.737172 0.0425867 0.509597 -0.147197 0.847729
-0.049027 -1.10581 0.0668564 0.778878 0.372014 0.50493
0.212208 -0.37044 0.0548444 0.710339 0.183533 -0.67951
0.146103 0.45354 0.181521 0.843129 -0.397823 -0.36176
-0.0297603 -0.824912 0.0283454 0.542403 -0.125228 0.830733
-0.109139 0.146739 0.14374 0.789346 -0.43736 0.430871
0.0138843 -0.533564 0.0423713 0.993694 -0.0423152 -0.103832
0.182829 -0.220749 0.186935 0.333805 -0.111175 0.936063
-0.10802 -0.518112 0.0818687 -0.939435 -0.211246 0.269884
-0.103679 -0.808489 -0.00328909 -0.990791 -0.134384 -0.016575
0.0469671 0.182104 0.225808 0.0459876 0.312246 0.948887
-0.197949 0.0374426 0.0335786 -0.137901 0.236864 -0.961706
-0.0564047 0.300736 0.0556256 -0.450425 0.533044 -0.716227
-0.12437 0.249923 0.0678227 -0.596436 0.396144 -0.698093
-0.113605 -0.418493 0.0603036 -0.961855 -0.0404421 -0.270552
-0.0893662 -0.659052 0.0446411 -0.911714 -0.0545782 0.407184
-0.0174946 -0.83859 -0.0504411 0.624493 -0.138483 -0.768655
0.340615 -0.0758318 0.0202005 0.0735034 -0.070187 -0.994822
0.417339 -0.312533 0.0804996 0.99885 0.0101757 0.0468615
0.065811 0.201386 0.0248169 0.159042 0.205007 -0.965753
0.00337913 -0.603459 0.0445748 0.917306 -0.271311 0.291446
0.238773 0.159891 0.0792286 0.950713 -0.304595 -0.058023
0.420777 -0.434977 0.0646805 0.875721 -0.207337 -0.436032
0.25859 0.210651 0.0735149 0.464792 0.105147 -0.879154
0.166094 0.141519 0.218859 0.47562 -0.127556 0.870354
0.222129 -0.437652 0.0692499 0.943381 0.010164 -0.331555
-0.311262 -0.302877 0.109318 0.987947 -0.125853 0.0901179
0.19092 -0.0820725 0.0906998 0.886712 0.143263 -0.439565
0.118492 0.385445 0.246456 0.710299 -0.703547 0.0222836
0.125229 -0.329453 0.0264487 -0.320828 -0.562362 -0.762114
0.0015539 0.0243076 0.225392 -0.531128 0.0471348 0.84598
-0.184318 0.191104 0.136586 -0.965643 0.101934 0.239045
0.144749 -0.287352 0.00952931 0.479432 -0.348552 -0.805392
0.0281656 0.477338 0.284612 -0.712874 -0.596993 0.367981
-0.0877956 0.0583725 0.0723364 -0.872789 -0.153522 -0.463325
-0.0934973 -0.696981 0.0352311 -0.873465 0.086711 0.479103
0.25213 0.226785 0.205008 0.0829241 -0.228868 0.969919
0.180385 -0.244304 0.0440858 0.863123 0.154054 -0.480923
0.14453 -1.07695 -0.0188914 -0.979835 0.100219 -0.172854
0.274645 -0.00646276 0.0723929 -0.958811 -0.276741 -0.0640001
0.0720723 0.0293496 0.234373 -0.0296386 -0.0178382 0.999402
-0.0518522 -0.651612 0.0898268 -0.327426 -0.312688 0.891638
0.162842 -0.616424 -0.0177832 -0.153367 0.137049 -0.97862
0.288812 -0.001929 0.0399226 -0.582481 -0.0397752 -0.81187
0.143077 0.229965 0.212179 0.146471 0.338373 0.929543
-0.0139361 -0.983861 -0.0449285 0.916063 -0.0250543 -0.40025
0.205071 -0.966024 -0.00909039 0.951584 -0.205434 -0.22866
0.0304966 0.0557141 0.233367 -0.24402 0.155214 0.957268
-0.0766889 -0.187917 0.184433 -0.509718 -0.0720712 0.857318
-0.0784657 -0.852903 0.0326705 -0.213034 -0.208839 0.954465
0.144879 -1.13652 -0.0393207 -0.552453 -0.318815 -0.770164
-0.056231 -1.14351 0.00207667 0.241225 -0.965207 0.100929
-0.0440543 0.0144177 0.047615 -0.392055 -0.299243 -0.869912
0.153634 -0.720681 -0.0367339 -0.582486 0.179808 -0.792704
0.000671666 -0.632778 0.0346528 0.825133 -0.249021 0.507094
0.399966 -0.395853 0.117112 -0.702373 -0.187707 0.686614
0.118372 -0.568947 0.0116236 -0.69019 0.046539 -0.72213
-0.000880891 0.172575 0.22933 -0.122228 0.37989 0.916921
-0.122308 -0.339898 0.0895505 -0.991573 0.00377545 -0.129492
0.162691 -1.08949 0.0893565 -0.216794 0.861056 0.459981
-0.0196427 -0.695888 0.0379459 0.753421 -0.211488 0.622599
0.0390847 0.564209 0.280154 -0.516044 0.508713 0.689137
0.196576 -0.891888 -0.03696 0.56248 -0.0993271 -0.820823
-0.0247701 -0.239065 0.194471 -0.259831 0.0795229 0.962374
0.0554091 0.518091 0.12098 -0.399266 0.0713213 -0.914057
-0.308813 -0.260828 0.0599277 0.663677 -0.406831 -0.627711
0.126569 0.514791 0.133026 0.674669 -0.00848021 -0.738072
0.202189 -0.985264 0.0190409 0.945415 -0.141598 0.293497
0.174376 -0.0785704 0.0653692 0.703974 0.171285 -0.689262
0.103179 0.538766 0.303651 0.293274 0.380911 0.876868
-0.0544731 -0.435528 0.0011842 -0.0802716 0.204788 -0.975509
0.0950332 0.552183 0.125339 0.145175 0.334969 -0.930978
0.183836 -1.06248 0.0521401 0.472257 0.539324 0.697211
0.182938 -0.726969 -0.0487856 -0.0125987 0.227092 -0.973792
0.167582 -0.456397 0.00478615 0.248168 0.234749 -0.939843
0.244169 0.281459 0.187569 0.0563103 0.824893 0.562478
-0.0907305 -0.5407 0.0139002 -0.744699 0.0597072 -0.664724
0.141264 -0.0413524 0.0491302 0.476193 0.135172 -0.868889
0.147476 -0.148464 0.0289639 0.504532 0.202751 -0.839249
0.12452 -0.228784 -0.00786593 0.144009 0.0598341 -0.987766
-0.129791 -1.14234 0.041523 -0.758741 -0.40745 -0.508229
0.407997 -0.364647 0.0451561 0.791852 0.0137303 -0.610558
-0.0922432 -0.414976 0.156439 -0.742912 -0.157868 0.650507
0.361744 -0.269963 0.0750582 -0.963898 -0.25049 0.0903115
-0.000439543 -0.58248 0.000513505 0.658701 0.173264 -0.732183
-0.0275966 -0.306561 0.00561936 -0.161584 -0.561282 -0.811698
0.0835852 0.237868 0.212577 -0.0305858 0.327738 0.944273
0.199302 0.114661 0.162641 0.878792 -0.194297 0.435859
-0.233992 0.0089084 0.0954666 -0.524948 0.172132 0.833547
-0.202432 -0.011713 0.0256076 0.53795 0.0481354 -0.841601
-0.299594 -0.104023 0.0725058 -0.970768 0.223906 0.0864563
0.305509 -0.108545 0.0431627 -0.723815 -0.240817 -0.646605
-0.0880076 0.0234508 0.117178 -0.997127 0.0139998 0.0744441
0.189165 0.019894 0.0867517 0.886537 -0.336926 -0.317071
-0.170843 0.174331 0.159917 -0.755263 -0.21264 0.619969
0.212814 -0.920796 0.0208093 0.935352 -0.179524 0.304775
-0.0625757 0.229793 0.0255413 -0.526079 0.246459 -0.81394
-0.317485 -0.284747 0.0508517 0.734614 0.0923663 -0.672169
-0.102622 -0.466906 0.0405584 -0.906134 -0.0538745 -0.419545
0.193114 -0.477253 0.143242 0.545646 -0.26649 0.794515
0.40052 -0.401414 0.0940698 -0.9235 -0.35776 -0.138404
0.193302 -0.262862 0.0577164 0.830624 0.308318 -0.463685
0.0569684 -0.300708 0.20843 0.157027 -0.558447 0.814543
-0.0805491 0.147063 0.18269 -0.833579 -0.458766 0.307702
-0.064734 -0.521875 0.127577 -0.146684 -0.394768 0.906996
0.312792 0.179351 0.146397 0.990339 0.10131 0.0946798
-0.0888329 -0.907889 -6.89402e-05 -0.983808 -0.179216 0.00154604
0.00644149 -0.437223 0.0198521 0.588192 0.119523 -0.79984
-0.0600109 -1.13369 0.105494 0.881077 0.250338 0.401291
0.385211 -0.110608 0.0559043 0.956633 0.132864 -0.259232
0.108974 -0.138782 0.212255 0.379675 -0.188027 0.905811
0.159485 -0.347858 0.0272264 0.147564 0.192375 -0.970163
0.0730555 0.122449 0.224555 -0.146069 -0.0929511 0.984898
0.0652573 0.277529 0.197861 0.255695 0.461243 0.849632
-0.069699 -1.05091 -0.00232508 -0.99563 0.0692806 -0.0626152
0.162287 0.0965067 0.199992 0.56718 -0.463895 0.68052
0.20203 -0.267388 0.159216 0.622021 0.179657 0.762111
0.00222042 -0.0612558 0.0373959 -0.0381416 0.166067 -0.985376
0.230223 -0.717569 -0.00845955 0.879922 0.14843 -0.451337
0.232494 -0.771286 -0.0120787 0.98332 -0.0234839 -0.18036
0.158753 0.035499 0.185442 0.65405 -0.0211149 0.756156
0.224306 -0.873276 0.0131189 0.938298 -0.153376 0.309956
0.287666 0.240562 0.120337 0.740634 0.5191 -0.42661
0.0366046 0.241639 0.0347028 0.246834 0.381497 -0.890805
0.17916 -0.170395 0.0592562 0.838095 0.118005 -0.532607
0.0148652 0.414898 0.229606 -0.931257 -0.340253 0.13034
0.190136 -1.09524 -0.0122696 0.860598 0.107219 -0.497871
-0.011493 -1.13094 -0.0266243 0.748862 -0.480604 0.456318
0.119547 -0.479704 0.133771 -0.777923 -0.258245 0.57284
-0.124193 -1.1536 0.143781 -0.0162697 -0.996343 0.083885
0.320887 0.0480729 0.121398 0.75342 0.0112246 0.657444
0.20836 -0.519858 0.0257535 0.833758 0.0233826 -0.551635
-0.101272 -0.344668 0.158403 -0.76818 -0.0512776 0.638177
-0.0313488 -0.988245 0.009488 0.69135 -0.015954 0.722344
-0.127108 0.301205 0.140316 -0.531398 0.782317 -0.324957
0.116051 0.424387 0.283528 0.690598 -0.315583 0.650755
-0.0301647 0.134 0.228829 -0.491627 0.0447867 0.869653
0.114005 -0.573577 0.0755107 -0.924991 -0.305221 0.226344
0.0097885 -0.472517 0.100534 0.828773 -0.232229 0.509121
0.0809971 -0.313139 0.00970838 0.0864879 -0.893775 -0.440098
0.302999 -0.0714044 0.0833838 -0.447157 -0.256931 0.85676
0.207148 -0.795034 -0.0458201 0.631465 -0.133744 -0.763783
-0.102019 -0.079802 0.132498 -0.991975 0.0581761 0.112252
-0.0494389 -0.346691 0.0146885 0.0372675 0.0999177 -0.994298
0.216241 0.190825 0.0401012 0.643632 0.0173792 -0.765138
0.11361 0.293872 0.193093 0.168064 0.72444 0.668537
-0.0665304 -1.13694 -0.0399441 -0.50562 -0.777402 -0.374159
0.158062 0.179856 0.010652 0.189617 -0.189283 -0.96344
-0.234927 -0.116761 0.0876839 0.514734 -0.362305 0.777036
0.0183344 0.547659 0.265289 -0.818713 0.32269 0.474952
0.196568 -1.14896 0.0958759 -0.140922 -0.987323 -0.0730372
0.139739 -0.656371 -0.0108969 -0.487913 0.000723436 -0.872892
0.0750404 0.0564038 0.0273449 -0.22502 -0.155908 -0.9618
0.14112 -1.05882 0.0298557 -0.916396 0.10472 0.386331
-0.0180007 -0.38165 0.0138658 0.33829 0.0775297 -0.937843
-0.352477 -0.387353 0.0870332 0.94316 -0.183486 0.277095
0.212614 -0.721826 -0.0356286 0.652404 0.178829 -0.736471
0.167358 -1.14542 0.00718293 -0.0716129 -0.996182 0.0499371
0.279572 0.180907 0.185876 0.358922 -0.342899 0.868099
0.256546 0.0623434 0.0609341 -0.828609 -0.233319 -0.50889
0.218754 -0.892569 -0.0110556 0.968752 -0.1658 -0.18447
0.399621 -0.350697 0.125249 0.634772 0.196044 0.747416
0.295101 0.18508 0.0875874 0.694764 0.269111 -0.666995
-0.177751 0.226771 0.145085 -0.967731 0.24933 -0.0364906
-0.0884083 0.311285 0.0920532 -0.523097 0.743729 -0.416217
0.1311 -0.628715 0.0613785 -0.918108 -0.320612 0.232993
0.193108 -1.04687 0.0318694 0.794242 0.115518 0.596519
-0.246039 -0.155874 0.0730651 0.83662 -0.459632 0.298002
0.0148979 -0.510874 0.0694348 0.951561 -0.147465 0.269789
-0.0787994 0.174323 0.0279666 -0.589178 -0.00613397 -0.80798
0.184413 0.0812639 0.169861 0.791026 -0.260632 0.553488
-0.149503 0.132017 0.0528726 -0.0384165 0.191044 -0.980829
-0.325966 -0.200812 0.0926708 -0.875187 0.355341 0.3283
-0.0715608 0.260195 0.0420598 -0.471425 0.329695 -0.817961
0.0205307 0.45162 0.16365 -0.806139 -0.196253 -0.558234
0.214246 -0.379306 0.141973 0.894095 -0.0105669 0.447752
-0.107017 -0.1323 0.0894976 -0.971884 -0.139169 -0.189933
0.191443 -0.638353 0.0940742 0.873497 -0.101851 0.476056
-0.0467655 -0.787148 0.0420182 0.427955 -0.094127 0.898885
0.155684 -1.00223 0.0298432 -0.763984 0.105839 0.636496
0.405509 -0.251928 0.0636043 0.954899 0.240483 -0.174173
0.120997 -0.588451 0.0046776 -0.706559 0.153039 -0.690908
-0.0958872 -0.752316 -0.0347117 -0.909153 0.0287525 -0.41547
-0.118356 -0.384295 0.0699447 -0.983843 -0.00788218 -0.178861
-0.0544445 0.265586 0.183932 0.0930468 0.439672 0.893326
0.141759 -1.11545 0.0476505 -0.912189 -0.394402 0.111165
0.110554 0.439172 0.144934 0.654033 -0.105624 -0.749055
-0.34422 -0.2408 0.0617847 -0.893433 0.42674 -0.140253
0.1325 0.0749978 0.0236298 0.228052 -0.178957 -0.957061
-0.100918 -0.724507 -0.0138515 -0.933452 0.150984 -0.32538
0.215189 0.105987 0.121591 0.905659 -0.247033 0.344609
0.219931 0.158186 0.142341 0.868636 -0.37815 0.320116
0.18813 0.180963 0.0202948 0.477467 -0.0566132 -0.876824
-0.11717 -0.403661 0.129439 -0.966518 -0.0348856 0.254215
-0.00902055 -0.786483 -0.0442049 0.857594 0.0431611 -0.512514
0.0667507 -0.323795 0.170827 0.714765 -0.694766 0.0800721
0.155651 -1.07828 0.065278 -0.821191 0.401367 0.405647
0.365974 -0.0328243 0.0536907 0.759921 0.247857 -0.600905
-0.121287 0.182258 0.0640883 0.280957 0.19969 -0.938716
-0.0633021 -0.576593 -0.0134223 -0.622829 0.0816149 -0.778089
0.396999 -0.384108 0.0786909 -0.97691 -0.211398 0.0309399
0.0131845 0.0498249 0.229427 -0.513575 0.0265645 0.857633
-0.0346263 -0.154249 0.196081 -0.292117 -0.400231 0.86861
0.00949228 -0.329814 0.0221104 0.169648 -0.966684 -0.191683
0.367992 -0.125439 0.0295634 0.466405 -0.0135412 -0.884468
-0.0776595 -0.00516425 0.0816506 -0.81845 -0.0421415 -0.573031
0.26314 0.0326323 0.103933 -0.874278 -0.392302 0.285898
0.143142 -0.977098 -0.015465 -0.976675 -0.0310694 -0.212465
-0.00774027 -0.909202 -0.0106604 0.999127 -0.0240076 -0.0341815
0.154997 -0.192884 0.195213 0.507957 0.146711 0.848797
0.200661 -0.447204 0.0280633 0.748364 0.143966 -0.647476
0.171047 -0.208419 0.0363735 0.789715 0.0670525 -0.609799
0.154997 0.546915 0.186206 0.979552 0.0876945 -0.181074
-0.0647294 -0.0288059 0.176837 -0.629507 0.337013 0.700103
0.226671 0.182009 0.134831 -0.983045 -0.0915512 -0.158877
-0.0517748 -0.734232 -0.0570271 -0.00458633 0.242746 -0.970079
-0.00400063 -0.801979 -0.0370624 0.8619 0.0460562 -0.504982
0.188831 -0.677273 -0.0349787 0.309843 0.325884 -0.893195
0.183986 -0.259956 0.177385 0.308957 -0.351122 0.883889
0.13058 0.265759 0.0388808 -0.302803 0.422524 -0.854274
0.179206 -0.865344 -0.0452178 -0.0228682 -0.119314 -0.992593
0.286396 -0.0533786 0.0529986 -0.943596 -0.260986 -0.203749
0.180584 -0.917926 0.0402907 -0.0437425 -0.149164 0.987845
0.148031 -0.752156 -0.0390824 -0.795533 0.156529 -0.585343
0.342753 -0.20752 0.0484471 -0.894434 -0.399023 -0.201911
-0.280291 -0.0470519 0.0582205 -0.917346 0.308432 -0.251686
-0.107179 0.123559 0.0872389 0.96398 -0.0915185 -0.249732
-0.0962356 0.25493 0.0528027 -0.428016 0.376877 -0.821441
0.189295 0.104278 0.0353973 0.539611 -0.25532 -0.802267
-0.0826624 -0.596308 -0.000657356 -0.630125 0.183061 -0.754606
0.0105218 -0.574636 0.0412755 0.993442 -0.0891286 0.0716232
0.10571 -0.114883 0.218733 0.380842 -0.219909 0.898109
0.0246859 0.280159 0.047853 0.233596 0.432755 -0.870721
-0.0233463 0.147326 0.0091837 0.032071 -0.17879 -0.983364
0.202218 -0.173541 0.113331 0.96985 0.195464 -0.145551
0.213865 -1.14937 0.0756942 -0.0961897 -0.991225 -0.090667
0.143824 -1.04108 -0.00711701 -0.964875 0.0288727 -0.261118
-0.0770123 -0.629824 0.0785833 -0.896022 -0.054313 0.440675
0.367916 -0.193302 0.0994316 -0.128219 -0.0167439 0.991605
-0.32933 -0.325488 0.0932336 0.777258 -0.574298 -0.257004
0.0183919 0.108342 0.233988 -0.0418715 -0.363615 0.930608
0.29133 0.252568 0.169431 0.867369 0.426999 0.255621
0.0295129 0.20348 0.217822 -0.0461839 0.428751 0.902241
-0.0527707 0.0624626 0.0332114 -0.440056 -0.289083 -0.850166
0.00999269 0.457404 0.256311 -0.959984 -0.0615314 0.273211
-0.112751 0.108653 0.0810601 0.923003 -0.223494 -0.313236
-0.0951182 -0.873555 -0.0197345 -0.983808 -0.179216 0.00154604
-0.101044 -0.534613 0.0460547 -0.972196 -0.0728479 -0.222551
-0.12215 0.114694 0.133881 0.687527 -0.441319 0.576666
-0.116003 -0.435882 0.115711 -0.973978 -0.131243 0.184779
0.0402398 0.365334 0.213463 -0.745597 -0.467863 0.474541
0.26321 0.0263398 0.0737364 -0.925771 -0.319037 -0.202889
-0.34988 -0.35377 0.11679 0.513259 -0.263974 0.816629
-0.0940669 0.123956 0.0490297 -0.822763 -0.159644 -0.545504
-0.121722 -0.274843 0.111333 -0.999663 -0.0194272 -0.0172129
-0.0596132 -0.808044 -0.0638718 -0.418067 -0.0439309 -0.907354
0.154209 -0.793529 0.039121 -0.693784 -0.015167 0.720024
0.396749 -0.271994 0.104684 0.504083 0.110043 0.856616
0.141662 -0.926811 -0.0150741 -0.986528 -0.0215806 -0.162162
-0.262189 -0.0977053 0.100598 0.0754525 -0.0470085 0.996041
0.188179 -1.14664 0.0803255 -0.124055 -0.991766 -0.0317924
-0.0596171 -0.729672 0.0552623 -0.239316 -0.100494 0.965727
-0.0880419 -0.0277695 0.0998046 -0.938728 0.208456 -0.274473
-0.200787 0.118736 0.0786368 -0.873486 0.340029 -0.348428
0.0295792 -0.250797 0.205335 -0.174147 0.291084 0.940714
0.175402 -1.02908 -0.0279308 0.455647 -0.163708 -0.874977
0.279186 0.17082 0.071794 0.309198 0.274622 -0.910483
0.176213 -0.574923 -0.011635 0.104114 0.0980374 -0.989722
-0.012042 -0.845095 0.0116296 0.885257 -0.078332 0.458458
0.260726 0.262255 0.202129 0.317431 0.145186 0.937101
-0.0890172 -1.08887 0.0270342 -0.785686 0.617045 -0.0441955
0.154018 -1.13263 0.1524 -0.854711 0.45352 0.252565
-0.0586052 -0.398443 0.170313 0.181993 -0.212158 0.960139
0.153188 -0.482757 -0.00161553 -0.174221 0.118288 -0.977576
0.216895 -0.568206 0.0502655 0.997744 0.0660506 -0.0120152
0.166928 -0.676382 -0.0344223 -0.235658 0.326607 -0.915311
0.375839 -0.0622522 0.0790349 0.811894 0.185052 0.553701
0.192899 -1.0166 0.0274137 0.683571 -0.0892695 0.724405
0.0617653 0.428899 0.133154 -0.300717 -0.00264507 -0.95371
0.122461 -0.505624 0.0110549 -0.685027 -0.0216758 -0.728195
0.000601128 -0.0554953 0.2262 -0.502244 0.0655065 0.862241
0.14462 0.561806 0.242432 0.82259 0.377701 0.425073
0.198821 -1.05142 0.00601607 0.985546 0.0690525 0.154694
0.0857122 -0.400793 0.0471711 -0.817505 -0.00686043 -0.57588
-0.0135074 -1.0244 -0.0298638 0.999717 -0.0233978 -0.00431511
0.00943458 -0.436223 0.118532 0.774162 -0.295944 0.559546
0.202515 -0.294836 0.161403 0.821222 0.0307434 0.569781
-0.148038 0.105714 0.1462 0.0552005 -0.333973 0.940965
0.16428 -0.635487 0.102998 -0.303067 -0.137838 0.942948
-0.0318762 -0.852239 -0.0574321 0.350382 -0.115423 -0.929467
0.131574 0.477749 0.27802 0.879308 -0.0899833 0.467675
-0.122431 0.255839 0.198042 -0.327827 0.0779309 0.941518
-0.172733 -0.0175126 0.0678304 0.909898 -0.395971 0.123665
0.119473 -0.618043 0.00624471 -0.862095 -0.00881814 -0.506671
-0.362493 -0.418982 0.0900764 -0.394333 -0.041232 0.918042
-0.0551046 -0.247224 0.000655924 -0.540362 0.08955 -0.836654
0.00166645 -0.800791 -0.0190929 0.970347 0.00897625 -0.24155
0.0626753 -0.325294 0.0521142 -0.179027 -0.982919 0.0426623
-0.116485 -0.227744 0.0880476 -0.96305 0.120883 -0.240669
-0.00857506 -0.86115 -0.0342722 0.856945 -0.065348 -0.511249
0.0340725 -0.398436 0.0657581 0.967643 -0.134573 -0.213439
-0.246196 0.0080587 0.0457126 -0.657703 0.510676 -0.553748
0.140368 -0.653938 0.0672549 -0.941953 -0.291738 0.166176
0.214315 -0.257768 0.0959385 0.976889 0.0380816 -0.210327
-0.100063 0.290963 0.184932 0.10048 0.521296 0.84744
0.107728 0.0147478 0.224024 0.451685 0.0479292 0.890889
-0.000730533 0.323436 0.0623735 0.050439 0.677883 -0.733438
-0.103896 0.171141 0.118362 -0.951279 -0.15498 0.266551
-0.107781 -0.234826 0.153304 -0.858931 -0.0188706 0.511744
0.188569 0.26156 0.191176 0.218923 0.231951 0.947772
0.097866 0.365271 0.265101 0.735448 -0.675663 0.0509411
-0.0219622 -1.06061 0.0144028 0.74539 0.0539654 0.664441
0.0637558 -0.37107 0.102097 -0.935994 -0.23588 0.261295
0.203635 -1.10063 0.0845684 0.707421 0.622173 0.335346
-0.234734 -0.138039 0.0443342 0.728515 -0.403307 -0.553724
0.102989 -0.520972 0.0818369 -0.965891 -0.185038 0.181148
0.343525 0.0078446 0.0948582 0.867959 0.100468 0.486367
0.0224368 -0.112259 0.0232127 0.062863 0.318594 -0.945804
0.195428 -0.0728951 0.119077 0.990102 0.0446175 -0.133067
-0.0733178 -1.14858 0.0819844 0.445212 -0.89539 0.00797502
0.0156067 0.0827616 0.0187052 0.0705471 -0.251014 -0.965409
0.074618 -0.424313 0.0779116 -0.952419 -0.288007 0.0997514
0.111374 0.542462 0.126502 0.478663 0.256615 -0.839661
0.318155 0.137388 0.0981528 0.97051 0.207214 -0.123174
0.12233 0.0897643 0.219408 0.228747 -0.19824 0.953088
0.163186 -0.130001 0.191733 0.499492 -0.029975 0.8658
0.0271339 -0.144145 0.219424 -0.0607327 -0.266315 0.961971
0.199842 -0.612452 0.0831552 0.796824 -0.00103579 0.60421
0.177596 -0.946997 -0.037895 0.037764 -0.0362073 -0.998631
0.277942 0.110284 0.0557414 0.0223793 0.271592 -0.962152
0.149317 0.482124 0.166703 0.791605 -0.11057 -0.600946
-0.188459 -0.0350543 0.0416624 0.738318 -0.229606 -0.634167
-0.103849 0.160152 0.0930224 0.968224 0.0173836 -0.249478
0.0324653 0.383509 0.245184 -0.834147 -0.551403 -0.0123997
-0.0333944 0.220397 0.00923614 -0.128893 0.252252 -0.959039
0.212624 -0.600619 0.0139028 0.723261 0.305085 -0.61953
0.220943 -0.316166 0.0979886 0.962611 0.123915 -0.240882
0.215052 -0.771878 -0.0400675 0.679606 0.0370151 -0.732643
-0.0102653 -1.08161 -0.0476968 0.987624 0.089657 0.128688
0.183717 -0.635461 -0.0220633 0.237227 0.23998 -0.941346
0.0613289 -0.218191 0.205345 0.0932144 -0.00208057 0.995644
0.122204 -0.643767 0.0223903 -0.885724 -0.293905 0.359323
-0.00462251 -0.74724 -0.00233588 0.975175 0.0901308 0.202264
-0.0773443 0.172995 0.204587 -0.62173 -0.174525 0.76354
0.14257 -0.798637 -0.040162 -0.74838 0.0269381 -0.662722
-0.0528433 0.0900676 0.0247509 -0.457089 -0.250042 -0.85355
-0.0767927 -0.0730037 0.0600614 -0.641934 0.298189 -0.706403
0.334199 -0.0951971 0.0957 -0.338727 -0.00314808 0.94088
0.027099 -0.0426526 0.0410611 0.0595339 0.16978 -0.983682
0.2238 0.310881 0.118107 0.572537 0.800314 -0.178044
-0.0275557 0.316345 0.154254 -0.273889 0.270891 0.922823
0.162823 -0.126209 0.0458866 0.635013 0.000900409 -0.772501
0.291092 0.104689 0.149004 0.461753 -0.176731 0.869224
-0.00676535 -0.0900888 0.222853 -0.450152 -0.0193801 0.892741
0.165208 0.0678262 0.184797 0.678196 -0.165134 0.716088
-0.0567372 -0.207828 0.187197 -0.201052 -0.390117 0.898547
0.201508 -1.14546 0.0268928 0.323582 -0.932525 -0.160286
-0.172331 0.150712 0.0639274 -0.387454 0.304004 -0.870323
0.0891866 0.150662 0.0169216 -0.11084 0.0143921 -0.993734
0.137297 0.420127 0.216262 0.915237 -0.367804 -0.164502
-0.0439869 -0.0939448 0.205179 -0.347467 0.0446539 0.936629
-0.155374 0.217403 0.182854 -0.440448 -0.165196 0.882449
-0.00427541 0.174853 0.00745002 0.167062 -0.209286 -0.963478
-0.281159 -0.212777 0.0814991 0.820707 -0.444807 0.358589
0.130323 -0.830708 -0.0120269 -0.990472 -0.131586 -0.0406345
0.0350282 -0.404485 0.0819029 0.96243 -0.231612 0.141717
0.179242 -1.10273 0.11205 0.0480256 0.815642 0.576561
-0.0766545 -0.180892 0.0357737 -0.839784 0.0710395 -0.538253
-0.231752 -0.0618816 0.0968355 0.246414 -0.0413121 0.968284
0.148046 -0.885874 -0.0318605 -0.725965 -0.10111 -0.680258
0.155829 -0.673647 0.0755766 -0.583183 -0.608541 0.538122
0.141825 0.250224 0.205878 0.181522 0.277176 0.943516
-0.0927635 -0.767919 0.0344091 -0.780893 -0.0375301 0.623536
0.402188 -0.327486 0.110341 0.597855 0.239268 0.765062
0.126894 -0.159394 0.197827 0.135267 0.0306421 0.990335
0.128814 0.305474 0.182555 0.50024 0.184894 0.845916
0.155379 -0.276059 0.185486 0.0779766 -0.311625 0.947
0.0303491 0.165275 0.0131253 0.183827 0.160376 -0.969787
-0.0404855 -1.11089 -0.0693306 -0.457321 0.174308 -0.872051
-0.0487954 -0.816911 0.0393427 0.415861 -0.138219 0.898863
-0.00942698 0.33859 0.152004 -0.363307 0.522473 0.771382
-0.0901441 -0.483414 0.0179839 -0.790906 0.028798 -0.61126
-0.058091 -1.06036 0.0290312 -0.604918 0.529674 0.594575
0.312154 0.174387 0.109917 0.900894 0.249844 -0.354919
0.407804 -0.302173 0.0565633 0.485931 0.129903 -0.864289
-0.061794 0.331169 0.132843 -0.326931 0.863477 0.384089
0.194813 -1.07779 -0.00945662 0.945246 -0.0944583 -0.312392
0.372204 -0.312838 0.0962417 -0.925602 0.179155 0.333414
0.177676 -0.396773 0.173259 0.138734 -0.189699 0.971991
-0.230647 -0.0867208 0.0243317 0.340826 -0.180372 -0.922661
0.175499 -0.691629 0.0763162 -0.275326 -0.491637 0.826129
-0.0971804 -0.049727 0.130162 -0.962859 0.257489 -0.0812563
0.220833 -0.492709 0.0955591 0.993288 -0.115544 0.00535
-0.309191 -0.279151 0.0881645 0.992082 -0.0953965 0.0816886
-0.0993161 -0.618947 0.0206451 -0.986558 0.117033 -0.114046
0.111365 -0.0177009 0.221188 0.533476 -0.0453255 0.8446
0.115516 -0.208598 -0.00744842 0.204657 0.113608 -0.972218
-0.045523 -0.497884 -0.0116874 -0.125785 0.151285 -0.980454
-0.00127412 -0.78645 -0.00139986 0.97559 0.0872066 0.201544
-0.0902954 0.0765062 0.116365 -0.983573 -0.0828958 0.160348
0.294759 0.0239558 0.0373765 -0.321305 0.130175 -0.937986
-0.0951449 -0.478979 0.129682 -0.69575 -0.287387 0.658286
-0.0412257 -0.450195 0.152782 0.282052 -0.236436 0.929809
-0.0590023 -0.675584 -0.0405283 -0.331537 0.32886 -0.884271
0.168175 -0.340093 0.184053 0.119894 -0.147534 0.981763
-0.0125313 -0.88124 -0.0383357 0.856945 -0.065348 -0.511249
0.216885 -0.623396 0.0530002 0.841721 -0.0705996 0.535276
0.153464 -1.13875 0.1295 -0.929659 -0.367775 -0.0218168
-0.0915814 -0.746844 0.0373969 -0.779724 0.0114926 0.626018
-0.0710577 -0.608766 0.0891247 -0.531645 -0.195299 0.824143
-0.0197848 -0.478017 0.135073 0.719022 -0.170028 0.673867
0.0174641 -0.306791 0.183037 -0.510579 -0.629963 0.585197
0.0640848 0.253273 0.0448641 0.122844 0.381564 -0.916143
0.0228899 -0.139582 0.00957693 0.0275392 0.388872 -0.92088
-0.037972 0.0589783 0.188425 -0.711075 -0.131981 0.690618
0.0783852 0.498946 0.117502 -0.0383127 -0.222163 -0.974256
0.225477 -0.686461 -0.00738841 0.805929 0.232451 -0.544468
0.139076 0.587389 0.184206 0.767788 0.63572 -0.079762
0.149406 -0.751807 0.0359969 -0.792198 0.0269343 0.60967
-0.0758982 -0.28619 0.0199981 -0.620183 0.0290548 -0.783919
-0.197815 0.0703486 0.126687 -0.716869 0.130397 0.684906
0.226117 -0.720845 0.0446705 0.928582 0.0462915 0.36823
0.107683 0.611883 0.212955 0.446613 0.846825 0.288833
0.316165 0.0908504 0.125704 0.741876 -0.0366492 0.669535
0.163476 -0.111002 0.193002 0.549442 -0.0422197 0.834464
-0.258817 -0.176609 0.0454617 0.792462 -0.545521 -0.272784
-0.0450744 -0.079499 0.0388728 -0.264637 0.335791 -0.903997
0.0046723 0.505013 0.236836 -0.965379 -0.136153 0.2225
0.0855025 0.353484 0.233796 0.547286 -0.435587 0.714662
-0.068369 -0.703159 0.0619188 -0.604685 -0.0558218 0.794506
-0.345874 -0.391458 0.0526225 0.445537 0.0662172 -0.892812
0.21727 0.0990162 0.0771296 0.910785 -0.408649 -0.0589605
-0.178729 0.205948 0.111844 -0.929752 0.297927 -0.216336
0.159448 -0.00742458 0.0654159 0.633317 -0.237936 -0.736408
0.246529 0.259978 0.0829573 0.651039 0.443549 -0.615965
0.0829407 0.59446 0.149085 0.151113 0.596813 -0.788022
-0.121079 -0.316041 0.080835 -0.991573 0.00377545 -0.129492
-0.0663154 -0.217847 0.0144444 -0.744821 0.115677 -0.657161
0.141301 -0.72362 -0.0176968 -0.92826 0.164575 -0.333538
0.327449 -0.0399805 0.0941226 -0.113593 -0.336799 0.934699
-0.0836972 -1.14304 0.149577 0.787731 -0.524471 0.323127
0.018803 0.0529217 0.0273641 0.219638 -0.261665 -0.939835
