0.257812 -0.9375 -0.880383 0 0 1
0.265625 -0.976562 -0.770798 0 0 1
0.265625 -0.96875 -0.787928 0 0 1
0.265625 -0.960938 -0.79539 0 0 1
0.265625 -0.953125 -0.784932 0 0 1
0.265625 -0.945312 -0.869294 0 0 1
0.265625 -0.9375 -0.87925 0 0 1
0.273438 -0.96875 -0.790002 0 0 1
0.273438 -0.960938 -0.793826 0 0 1
0.273438 -0.953125 -0.79219 0 0 1
0.273438 -0.945312 -0.871451 0 0 1
0.273438 -0.9375 -0.875697 0 0 1
0.273438 -0.929688 -0.861839 0 0 1
0.28125 -0.96875 -0.784371 0 0 1
0.28125 -0.960938 -0.792635 0 0 1
0.28125 -0.953125 -0.792769 0 0 1
0.28125 -0.945312 -0.866375 0 0 1
0.28125 -0.9375 -0.870035 0 0 1
0.28125 -0.929688 -0.858434 0 0 1
0.289062 -0.96875 -0.785579 0 0 1
0.289062 -0.960938 -0.793115 0 0 1
0.289062 -0.953125 -0.79317 0 0 1
0.289062 -0.945312 -0.861774 0 0 1
0.289062 -0.9375 -0.86405 0 0 1
0.289062 -0.929688 -0.861431 0 0 1
0.296875 -0.96875 -0.788461 0 0 1
0.296875 -0.960938 -0.792045 0 0 1
0.296875 -0.953125 -0.839557 0 0 1
0.296875 -0.945312 -0.858236 0 0 1
0.296875 -0.9375 -0.858548 0 0 1
0.296875 -0.929688 -0.853849 0 0 1
0.296875 -0.921875 -0.848868 0 0 1
0.304688 -0.96875 -0.786698 0 0 1
0.304688 -0.960938 -0.791267 0 0 1
0.304688 -0.953125 -0.836071 0 0 1
0.304688 -0.945312 -0.850039 0 0 1
0.304688 -0.9375 -0.85025 0 0 1
0.304688 -0.929688 -0.850845 0 0 1
0.304688 -0.921875 -0.850109 0 0 1
0.304688 -0.914062 -0.848238 0 0 1
0.304688 -0.90625 -0.848918 0 0 1
0.304688 -0.898438 -0.84793 0 0 1
0.3125 -0.96875 -0.781376 0 0 1
0.3125 -0.960938 -0.789268 0 0 1
0.3125 -0.953125 -0.83338 0 0 1
0.3125 -0.945312 -0.844852 0 0 1
0.3125 -0.9375 -0.846248 0 0 1
0.3125 -0.929688 -0.847396 0 0 1
0.3125 -0.921875 -0.846968 0 0 1
0.3125 -0.914062 -0.834287 0 0 1
0.3125 -0.90625 -0.849112 0 0 1
0.3125 -0.898438 -0.849659 0 0 1
0.3125 -0.890625 -0.850374 0 0 1
0.3125 -0.882812 -0.849052 0 0 1
0.3125 -0.875 -0.847243 0 0 1
0.3125 -0.867188 -0.846204 0 0 1
0.3125 -0.859375 -0.845814 0 0 1
0.320312 -0.960938 -0.781464 0 0 1
0.320312 -0.953125 -0.777593 0 0 1
0.320312 -0.945312 -0.836734 0 0 1
0.320312 -0.9375 -0.837731 0 0 1
0.320312 -0.929688 -0.836521 0 0 1
0.320312 -0.921875 -0.843072 0 0 1
0.320312 -0.914062 -0.843527 0 0 1
0.320312 -0.90625 -0.845019 0 0 1
0.320312 -0.898438 -0.847106 0 0 1
0.320312 -0.890625 -0.849642 0 0 1
0.320312 -0.882812 -0.851123 0 0 1
0.320312 -0.875 -0.851483 0 0 1
0.320312 -0.867188 -0.850186 0 0 1
0.320312 -0.859375 -0.851713 0 0 1
0.320312 -0.851562 -0.850272 0 0 1
0.320312 -0.84375 -0.847222 0 0 1
0.320312 -0.835938 -0.839561 0 0 1
0.320312 -0.828125 -0.840551 0 0 1
0.320312 -0.820312 -0.837674 0 0 1
0.320312 -0.8125 -0.837884 0 0 1
0.320312 -0.804688 -0.832547 0 0 1
0.320312 -0.796875 -0.835114 0 0 1
0.320312 -0.789062 -0.836574 0 0 1
0.320312 -0.78125 -0.835689 0 0 1
0.320312 -0.773438 -0.834339 0 0 1
0.320312 -0.765625 -0.837701 0 0 1
0.320312 -0.757812 -0.840657 0 0 1
0.320312 -0.75 -0.84088 0 0 1
0.320312 -0.742188 -0.838461 0 0 1
0.320312 -0.734375 -0.928116 0 0 1
0.320312 -0.710938 -0.924587 0 0 1
0.328125 -0.9375 -0.776253 0 0 1
0.328125 -0.929688 -0.77717 0 0 1
0.328125 -0.921875 -0.776662 0 0 1
0.328125 -0.914062 -0.836232 0 0 1
0.328125 -0.90625 -0.840844 0 0 1
0.328125 -0.898438 -0.844391 0 0 1
0.328125 -0.890625 -0.847335 0 0 1
0.328125 -0.882812 -0.849597 0 0 1
0.328125 -0.875 -0.8503 0 0 1
0.328125 -0.867188 -0.850978 0 0 1
0.328125 -0.859375 -0.851073 0 0 1
0.328125 -0.851562 -0.851332 0 0 1
0.328125 -0.84375 -0.850062 0 0 1
0.328125 -0.835938 -0.848239 0 0 1
0.328125 -0.828125 -0.845524 0 0 1
0.328125 -0.820312 -0.84208 0 0 1
0.328125 -0.8125 -0.841033 0 0 1
0.328125 -0.804688 -0.840516 0 0 1
0.328125 -0.796875 -0.8409 0 0 1
0.328125 -0.789062 -0.841398 0 0 1
0.328125 -0.78125 -0.843621 0 0 1
0.328125 -0.773438 -0.842306 0 0 1
0.328125 -0.765625 -0.845795 0 0 1
0.328125 -0.757812 -0.845322 0 0 1
0.328125 -0.75 -0.845753 0 0 1
0.328125 -0.742188 -0.84517 0 0 1
0.328125 -0.734375 -0.840948 0 0 1
0.328125 -0.726562 -0.928215 0 0 1
0.328125 -0.71875 -0.840103 0 0 1
0.328125 -0.710938 -0.919579 0 0 1
0.328125 -0.703125 -0.922422 0 0 1
0.328125 -0.695312 -0.787025 0 0 1
0.328125 -0.6875 -0.780146 0 0 1
0.335938 -0.921875 -0.769665 0 0 1
0.335938 -0.914062 -0.769889 0 0 1
0.335938 -0.90625 -0.773946 0 0 1
0.335938 -0.898438 -0.838398 0 0 1
0.335938 -0.890625 -0.842173 0 0 1
0.335938 -0.882812 -0.844607 0 0 1
0.335938 -0.875 -0.846462 0 0 1
0.335938 -0.867188 -0.848015 0 0 1
0.335938 -0.859375 -0.849959 0 0 1
0.335938 -0.851562 -0.849442 0 0 1
0.335938 -0.84375 -0.849274 0 0 1
0.335938 -0.835938 -0.846823 0 0 1
0.335938 -0.828125 -0.845216 0 0 1
0.335938 -0.820312 -0.843158 0 0 1
0.335938 -0.8125 -0.842624 0 0 1
0.335938 -0.804688 -0.841836 0 0 1
0.335938 -0.796875 -0.842156 0 0 1
0.335938 -0.789062 -0.843989 0 0 1
0.335938 -0.78125 -0.84505 0 0 1
0.335938 -0.773438 -0.845714 0 0 1
0.335938 -0.765625 -0.84611 0 0 1
0.335938 -0.757812 -0.846593 0 0 1
0.335938 -0.75 -0.846958 0 0 1
0.335938 -0.742188 -0.923783 0 0 1
0.335938 -0.734375 -0.925025 0 0 1
0.335938 -0.726562 -0.925603 0 0 1
0.335938 -0.71875 -0.927256 0 0 1
0.335938 -0.710938 -0.926533 0 0 1
0.335938 -0.703125 -0.922516 0 0 1
0.335938 -0.695312 -0.919361 0 0 1
0.335938 -0.6875 -0.831785 0 0 1
0.335938 -0.679688 -0.806741 0 0 1
0.335938 -0.671875 -0.806062 0 0 1
0.34375 -0.914062 -0.765125 0 0 1
0.34375 -0.90625 -0.769623 0 0 1
0.34375 -0.898438 -0.770462 0 0 1
0.34375 -0.890625 -0.773019 0 0 1
0.34375 -0.882812 -0.834716 0 0 1
0.34375 -0.875 -0.838683 0 0 1
0.34375 -0.867188 -0.841731 0 0 1
0.34375 -0.859375 -0.844934 0 0 1
0.34375 -0.851562 -0.846506 0 0 1
0.34375 -0.84375 -0.8439 0 0 1
0.34375 -0.835938 -0.845607 0 0 1
0.34375 -0.828125 -0.844707 0 0 1
0.34375 -0.820312 -0.844091 0 0 1
0.34375 -0.8125 -0.844033 0 0 1
0.34375 -0.804688 -0.842843 0 0 1
0.34375 -0.796875 -0.842606 0 0 1
0.34375 -0.789062 -0.841898 0 0 1
0.34375 -0.78125 -0.843113 0 0 1
0.34375 -0.773438 -0.843187 0 0 1
0.34375 -0.765625 -0.843769 0 0 1
0.34375 -0.757812 -0.801604 0 0 1
0.34375 -0.75 -0.84716 0 0 1
0.34375 -0.742188 -0.847015 0 0 1
0.34375 -0.734375 -0.920963 0 0 1
0.34375 -0.726562 -0.922711 0 0 1
0.34375 -0.71875 -0.924995 0 0 1
0.34375 -0.710938 -0.924608 0 0 1
0.34375 -0.703125 -0.92527 0 0 1
0.34375 -0.695312 -0.924102 0 0 1
0.34375 -0.6875 -0.920901 0 0 1
0.34375 -0.679688 -0.837741 0 0 1
0.34375 -0.671875 -0.834313 0 0 1
0.34375 -0.664062 -0.817034 0 0 1
0.34375 -0.65625 -0.826604 0 0 1
0.34375 -0.648438 -0.796395 0 0 1
0.351562 -0.90625 -0.750914 0 0 1
0.351562 -0.898438 -0.75561 0 0 1
0.351562 -0.890625 -0.766543 0 0 1
0.351562 -0.882812 -0.768888 0 0 1
0.351562 -0.875 -0.765667 0 0 1
0.351562 -0.867188 -0.832642 0 0 1
0.351562 -0.859375 -0.839181 0 0 1
0.351562 -0.851562 -0.839618 0 0 1
0.351562 -0.84375 -0.839583 0 0 1
0.351562 -0.835938 -0.842146 0 0 1
0.351562 -0.828125 -0.84256 0 0 1
0.351562 -0.820312 -0.840954 0 0 1
0.351562 -0.8125 -0.840948 0 0 1
0.351562 -0.804688 -0.839138 0 0 1
0.351562 -0.796875 -0.84069 0 0 1
0.351562 -0.789062 -0.840327 0 0 1
0.351562 -0.78125 -0.841342 0 0 1
0.351562 -0.773438 -0.839404 0 0 1
0.351562 -0.765625 -0.79869 0 0 1
0.351562 -0.757812 -0.844484 0 0 1
0.351562 -0.75 -0.843275 0 0 1
0.351562 -0.742188 -0.844225 0 0 1
0.351562 -0.734375 -0.918834 0 0 1
0.351562 -0.726562 -0.921222 0 0 1
0.351562 -0.71875 -0.920452 0 0 1
0.351562 -0.710938 -0.916505 0 0 1
0.351562 -0.703125 -0.924342 0 0 1
0.351562 -0.695312 -0.923645 0 0 1
0.351562 -0.6875 -0.921767 0 0 1
0.351562 -0.679688 -0.91841 0 0 1
0.351562 -0.671875 -0.838612 0 0 1
0.351562 -0.664062 -0.836814 0 0 1
0.351562 -0.65625 -0.834294 0 0 1
0.351562 -0.648438 -0.830335 0 0 1
0.351562 -0.640625 -0.824208 0 0 1
0.351562 -0.632812 -0.813224 0 0 1
0.351562 -0.625 -0.800262 0 0 1
0.351562 -0.617188 -0.799507 0 0 1
0.351562 -0.609375 -0.795286 0 0 1
0.351562 -0.601562 -0.787842 0 0 1
0.359375 -0.890625 -0.752546 0 0 1
0.359375 -0.882812 -0.759872 0 0 1
0.359375 -0.875 -0.764142 0 0 1
0.359375 -0.867188 -0.763416 0 0 1
0.359375 -0.859375 -0.829222 0 0 1
0.359375 -0.851562 -0.831602 0 0 1
0.359375 -0.84375 -0.832501 0 0 1
0.359375 -0.835938 -0.836586 0 0 1
0.359375 -0.828125 -0.83678 0 0 1
0.359375 -0.820312 -0.83588 0 0 1
0.359375 -0.8125 -0.835395 0 0 1
0.359375 -0.804688 -0.833081 0 0 1
0.359375 -0.796875 -0.837586 0 0 1
0.359375 -0.789062 -0.837521 0 0 1
0.359375 -0.78125 -0.835572 0 0 1
0.359375 -0.773438 -0.836457 0 0 1
0.359375 -0.765625 -0.839138 0 0 1
0.359375 -0.757812 -0.840269 0 0 1
0.359375 -0.75 -0.838723 0 0 1
0.359375 -0.742188 -0.788661 0 0 1
0.359375 -0.734375 -0.841127 0 0 1
0.359375 -0.726562 -0.912892 0 0 1
0.359375 -0.71875 -0.914596 0 0 1
0.359375 -0.710938 -0.915771 0 0 1
0.359375 -0.703125 -0.917529 0 0 1
0.359375 -0.695312 -0.920066 0 0 1
0.359375 -0.6875 -0.90775 0 0 1
0.359375 -0.679688 -0.920139 0 0 1
0.359375 -0.671875 -0.919263 0 0 1
0.359375 -0.664062 -0.914945 0 0 1
0.359375 -0.65625 -0.910098 0 0 1
0.359375 -0.648438 -0.83689 0 0 1
0.359375 -0.640625 -0.834297 0 0 1
0.359375 -0.632812 -0.831366 0 0 1
0.359375 -0.625 -0.825675 0 0 1
0.359375 -0.617188 -0.819392 0 0 1
0.359375 -0.609375 -0.810008 0 0 1
0.359375 -0.601562 -0.811884 0 0 1
0.359375 -0.59375 -0.805363 0 0 1
0.359375 -0.585938 -0.797058 0 0 1
0.359375 -0.578125 -0.788237 0 0 1
0.367188 -0.882812 -0.745996 0 0 1
0.367188 -0.875 -0.754842 0 0 1
0.367188 -0.867188 -0.752012 0 0 1
0.367188 -0.859375 -0.753659 0 0 1
0.367188 -0.851562 -0.754055 0 0 1
0.367188 -0.84375 -0.756239 0 0 1
0.367188 -0.835938 -0.755681 0 0 1
0.367188 -0.828125 -0.757854 0 0 1
0.367188 -0.820312 -0.761866 0 0 1
0.367188 -0.8125 -0.82137 0 0 1
0.367188 -0.804688 -0.826471 0 0 1
0.367188 -0.796875 -0.828 0 0 1
0.367188 -0.789062 -0.830421 0 0 1
0.367188 -0.78125 -0.831364 0 0 1
0.367188 -0.773438 -0.831972 0 0 1
0.367188 -0.765625 -0.832674 0 0 1
0.367188 -0.757812 -0.834125 0 0 1
0.367188 -0.75 -0.833698 0 0 1
0.367188 -0.742188 -0.835616 0 0 1
0.367188 -0.734375 -0.836866 0 0 1
0.367188 -0.726562 -0.8371 0 0 1
0.367188 -0.71875 -0.911508 0 0 1
0.367188 -0.710938 -0.914636 0 0 1
0.367188 -0.703125 -0.913502 0 0 1
0.367188 -0.695312 -0.915181 0 0 1
0.367188 -0.6875 -0.916915 0 0 1
0.367188 -0.679688 -0.918532 0 0 1
0.367188 -0.671875 -0.918031 0 0 1
0.367188 -0.664062 -0.916268 0 0 1
0.367188 -0.65625 -0.913301 0 0 1
0.367188 -0.648438 -0.910098 0 0 1
0.367188 -0.640625 -0.723228 0 0 1
0.367188 -0.632812 -0.833228 0 0 1
0.367188 -0.625 -0.830916 0 0 1
0.367188 -0.617188 -0.828062 0 0 1
0.367188 -0.609375 -0.82556 0 0 1
0.367188 -0.601562 -0.82068 0 0 1
0.367188 -0.59375 -0.813642 0 0 1
0.367188 -0.585938 -0.803293 0 0 1
0.367188 -0.578125 -0.797492 0 0 1
0.367188 -0.570312 -0.789955 0 0 1
0.367188 -0.5625 -0.780706 0 0 1
0.367188 -0.554688 -0.77543 0 0 1
0.367188 -0.546875 -0.760607 0 0 1
0.375 -0.859375 -0.741638 0 0 1
0.375 -0.851562 -0.744772 0 0 1
0.375 -0.84375 -0.744556 0 0 1
0.375 -0.835938 -0.749872 0 0 1
0.375 -0.828125 -0.745632 0 0 1
0.375 -0.820312 -0.751802 0 0 1
0.375 -0.8125 -0.749517 0 0 1
0.375 -0.804688 -0.758437 0 0 1
0.375 -0.796875 -0.756841 0 0 1
0.375 -0.789062 -0.820594 0 0 1
0.375 -0.78125 -0.822421 0 0 1
0.375 -0.773438 -0.824614 0 0 1
0.375 -0.765625 -0.827135 0 0 1
0.375 -0.757812 -0.763489 0 0 1
0.375 -0.75 -0.828725 0 0 1
0.375 -0.742188 -0.785871 0 0 1
0.375 -0.734375 -0.833322 0 0 1
0.375 -0.726562 -0.833575 0 0 1
0.375 -0.71875 -0.835468 0 0 1
0.375 -0.710938 -0.834438 0 0 1
0.375 -0.703125 -0.837628 0 0 1
0.375 -0.6875 -0.836704 0 0 1
0.375 -0.679688 -0.914477 0 0 1
0.375 -0.671875 -0.912534 0 0 1
0.375 -0.664062 -0.914658 0 0 1
0.375 -0.65625 -0.911384 0 0 1
0.375 -0.648438 -0.908412 0 0 1
0.375 -0.640625 -0.907475 0 0 1
0.375 -0.632812 -0.903253 0 0 1
0.375 -0.625 -0.831597 0 0 1
0.375 -0.617188 -0.829659 0 0 1
0.375 -0.609375 -0.827882 0 0 1
0.375 -0.601562 -0.825517 0 0 1
0.375 -0.59375 -0.822281 0 0 1
0.375 -0.585938 -0.82036 0 0 1
0.375 -0.578125 -0.817525 0 0 1
0.375 -0.570312 -0.734213 0 0 1
0.375 -0.5625 -0.793516 0 0 1
0.375 -0.554688 -0.791657 0 0 1
0.375 -0.546875 -0.78326 0 0 1
0.375 -0.539062 -0.769953 0 0 1
0.382812 -0.820312 -0.732759 0 0 1
0.382812 -0.8125 -0.740171 0 0 1
0.382812 -0.804688 -0.748737 0 0 1
0.382812 -0.796875 -0.748842 0 0 1
0.382812 -0.789062 -0.742923 0 0 1
0.382812 -0.78125 -0.751711 0 0 1
0.382812 -0.773438 -0.808037 0 0 1
0.382812 -0.765625 -0.814797 0 0 1
0.382812 -0.757812 -0.822309 0 0 1
0.382812 -0.75 -0.821848 0 0 1
0.382812 -0.742188 -0.824779 0 0 1
0.382812 -0.734375 -0.824285 0 0 1
0.382812 -0.726562 -0.8282 0 0 1
0.382812 -0.71875 -0.782702 0 0 1
0.382812 -0.710938 -0.830318 0 0 1
0.382812 -0.703125 -0.831288 0 0 1
0.382812 -0.695312 -0.83451 0 0 1
0.382812 -0.6875 -0.834309 0 0 1
0.382812 -0.679688 -0.693871 0 0 1
0.382812 -0.671875 -0.833539 0 0 1
0.382812 -0.664062 -0.908084 0 0 1
0.382812 -0.65625 -0.902996 0 0 1
0.382812 -0.648438 -0.90906 0 0 1
0.382812 -0.640625 -0.887992 0 0 1
0.382812 -0.632812 -0.905095 0 0 1
0.382812 -0.625 -0.902768 0 0 1
0.382812 -0.617188 -0.898879 0 0 1
0.382812 -0.609375 -0.706219 0 0 1
0.382812 -0.601562 -0.824741 0 0 1
0.382812 -0.59375 -0.823072 0 0 1
0.382812 -0.585938 -0.701898 0 0 1
0.382812 -0.578125 -0.709447 0 0 1
0.382812 -0.570312 -0.812537 0 0 1
0.382812 -0.5625 -0.801133 0 0 1
0.382812 -0.554688 -0.795728 0 0 1
0.382812 -0.546875 -0.788571 0 0 1
0.382812 -0.539062 -0.782698 0 0 1
0.382812 -0.53125 -0.779313 0 0 1
0.382812 -0.523438 -0.764983 0 0 1
0.382812 -0.515625 -0.772898 0 0 1
0.390625 -0.789062 -0.731179 0 0 1
0.390625 -0.78125 -0.743993 0 0 1
0.390625 -0.773438 -0.746193 0 0 1
0.390625 -0.765625 -0.744686 0 0 1
0.390625 -0.757812 -0.745361 0 0 1
0.390625 -0.75 -0.749962 0 0 1
0.390625 -0.742188 -0.809151 0 0 1
0.390625 -0.734375 -0.817546 0 0 1
0.390625 -0.726562 -0.818897 0 0 1
0.390625 -0.71875 -0.821754 0 0 1
0.390625 -0.710938 -0.821842 0 0 1
0.390625 -0.703125 -0.826803 0 0 1
0.390625 -0.695312 -0.822688 0 0 1
0.390625 -0.6875 -0.829435 0 0 1
0.390625 -0.679688 -0.830251 0 0 1
0.390625 -0.671875 -0.688053 0 0 1
0.390625 -0.664062 -0.830489 0 0 1
0.390625 -0.65625 -0.690705 0 0 1
0.390625 -0.648438 -0.904248 0 0 1
0.390625 -0.640625 -0.903792 0 0 1
0.390625 -0.632812 -0.903901 0 0 1
0.390625 -0.625 -0.901625 0 0 1
0.390625 -0.617188 -0.899843 0 0 1
0.390625 -0.609375 -0.893906 0 0 1
0.390625 -0.601562 -0.885299 0 0 1
0.390625 -0.59375 -0.886277 0 0 1
0.390625 -0.585938 -0.821778 0 0 1
0.390625 -0.578125 -0.820643 0 0 1
0.390625 -0.570312 -0.814445 0 0 1
0.390625 -0.5625 -0.806684 0 0 1
0.390625 -0.554688 -0.806736 0 0 1
0.390625 -0.546875 -0.796423 0 0 1
0.390625 -0.539062 -0.793064 0 0 1
0.390625 -0.53125 -0.78678 0 0 1
0.390625 -0.523438 -0.78099 0 0 1
0.390625 -0.507812 -0.773104 0 0 1
0.390625 -0.5 -0.770366 0 0 1
0.390625 -0.492188 -0.762287 0 0 1
0.398438 -0.773438 -0.733924 0 0 1
0.398438 -0.765625 -0.733217 0 0 1
0.398438 -0.757812 -0.732885 0 0 1
0.398438 -0.75 -0.743347 0 0 1
0.398438 -0.742188 -0.746263 0 0 1
0.398438 -0.734375 -0.748942 0 0 1
0.398438 -0.726562 -0.748814 0 0 1
0.398438 -0.71875 -0.80161 0 0 1
0.398438 -0.710938 -0.808578 0 0 1
0.398438 -0.703125 -0.811752 0 0 1
0.398438 -0.695312 -0.68981 0 0 1
0.398438 -0.6875 -0.821794 0 0 1
0.398438 -0.679688 -0.823861 0 0 1
0.398438 -0.671875 -0.822957 0 0 1
0.398438 -0.664062 -0.824334 0 0 1
0.398438 -0.65625 -0.822402 0 0 1
0.398438 -0.648438 -0.828461 0 0 1
0.398438 -0.640625 -0.897544 0 0 1
0.398438 -0.632812 -0.898754 0 0 1
0.398438 -0.625 -0.898686 0 0 1
0.398438 -0.617188 -0.896532 0 0 1
0.398438 -0.609375 -0.896973 0 0 1
0.398438 -0.601562 -0.869609 0 0 1
0.398438 -0.59375 -0.890493 0 0 1
0.398438 -0.585938 -0.883883 0 0 1
0.398438 -0.578125 -0.886617 0 0 1
0.398438 -0.570312 -0.816807 0 0 1
0.398438 -0.5625 -0.814453 0 0 1
0.398438 -0.554688 -0.809948 0 0 1
0.398438 -0.546875 -0.806468 0 0 1
0.398438 -0.539062 -0.704554 0 0 1
0.398438 -0.53125 -0.796559 0 0 1
0.398438 -0.523438 -0.710782 0 0 1
0.398438 -0.515625 -0.785051 0 0 1
0.398438 -0.507812 -0.777777 0 0 1
0.398438 -0.5 -0.783253 0 0 1
0.398438 -0.492188 -0.778291 0 0 1
0.398438 -0.484375 -0.771997 0 0 1
0.398438 -0.476562 -0.782428 0 0 1
0.398438 -0.46875 -0.776336 0 0 1
0.398438 -0.460938 -0.780302 0 0 1
0.40625 -0.757812 -0.603796 0 0 1
0.40625 -0.75 -0.727692 0 0 1
0.40625 -0.742188 -0.731023 0 0 1
0.40625 -0.734375 -0.731635 0 0 1
0.40625 -0.726562 -0.738495 0 0 1
0.40625 -0.71875 -0.73267 0 0 1
0.40625 -0.710938 -0.743837 0 0 1
0.40625 -0.703125 -0.800825 0 0 1
0.40625 -0.695312 -0.81005 0 0 1
0.40625 -0.6875 -0.815519 0 0 1
0.40625 -0.679688 -0.813366 0 0 1
0.40625 -0.671875 -0.818386 0 0 1
0.40625 -0.664062 -0.817366 0 0 1
0.40625 -0.65625 -0.815143 0 0 1
0.40625 -0.648438 -0.683199 0 0 1
0.40625 -0.640625 -0.818565 0 0 1
0.40625 -0.632812 -0.893932 0 0 1
0.40625 -0.625 -0.890342 0 0 1
0.40625 -0.617188 -0.893785 0 0 1
0.40625 -0.609375 -0.894725 0 0 1
0.40625 -0.601562 -0.864332 0 0 1
0.40625 -0.59375 -0.892333 0 0 1
0.40625 -0.585938 -0.889747 0 0 1
0.40625 -0.578125 -0.867099 0 0 1
0.40625 -0.570312 -0.884349 0 0 1
0.40625 -0.5625 -0.813329 0 0 1
0.40625 -0.554688 -0.811791 0 0 1
0.40625 -0.546875 -0.695049 0 0 1
0.40625 -0.539062 -0.806531 0 0 1
0.40625 -0.53125 -0.69314 0 0 1
0.40625 -0.523438 -0.799 0 0 1
0.40625 -0.515625 -0.793544 0 0 1
0.40625 -0.507812 -0.790686 0 0 1
0.40625 -0.5 -0.786842 0 0 1
0.40625 -0.492188 -0.781431 0 0 1
0.40625 -0.484375 -0.787993 0 0 1
0.40625 -0.476562 -0.711084 0 0 1
0.40625 -0.46875 -0.788747 0 0 1
0.40625 -0.460938 -0.788963 0 0 1
0.40625 -0.453125 -0.778159 0 0 1
0.40625 -0.445312 -0.751626 0 0 1
0.40625 -0.4375 -0.768006 0 0 1
0.414062 -0.765625 -0.605562 0 0 1
0.414062 -0.757812 -0.595148 0 0 1
0.414062 -0.75 -0.602265 0 0 1
0.414062 -0.742188 -0.602584 0 0 1
0.414062 -0.734375 -0.603557 0 0 1
0.414062 -0.71875 -0.71846 0 0 1
0.414062 -0.710938 -0.732454 0 0 1
0.414062 -0.703125 -0.766402 0 0 1
0.414062 -0.695312 -0.795882 0 0 1
0.414062 -0.6875 -0.805008 0 0 1
0.414062 -0.679688 -0.80882 0 0 1
0.414062 -0.664062 -0.811833 0 0 1
0.414062 -0.65625 -0.684358 0 0 1
0.414062 -0.648438 -0.813057 0 0 1
0.414062 -0.632812 -0.814223 0 0 1
0.414062 -0.617188 -0.884085 0 0 1
0.414062 -0.609375 -0.889777 0 0 1
0.414062 -0.601562 -0.819069 0 0 1
0.414062 -0.59375 -0.887834 0 0 1
0.414062 -0.585938 -0.85377 0 0 1
0.414062 -0.578125 -0.886854 0 0 1
0.414062 -0.570312 -0.886389 0 0 1
0.414062 -0.5625 -0.881621 0 0 1
0.414062 -0.554688 -0.877136 0 0 1
0.414062 -0.546875 -0.869699 0 0 1
0.414062 -0.539062 -0.864463 0 0 1
0.414062 -0.53125 -0.856785 0 0 1
0.414062 -0.523438 -0.851619 0 0 1
0.414062 -0.515625 -0.842887 0 0 1
0.414062 -0.507812 -0.797015 0 0 1
0.414062 -0.5 -0.795906 0 0 1
0.414062 -0.492188 -0.790592 0 0 1
0.414062 -0.476562 -0.792039 0 0 1
0.414062 -0.46875 -0.792923 0 0 1
0.414062 -0.460938 -0.795896 0 0 1
0.414062 -0.453125 -0.797571 0 0 1
0.414062 -0.445312 -0.737934 0 0 1
0.414062 -0.4375 -0.785543 0 0 1
0.414062 -0.429688 -0.760132 0 0 1
0.421875 -0.742188 -0.589627 0 0 1
0.421875 -0.734375 -0.589674 0 0 1
0.421875 -0.726562 -0.603738 0 0 1
0.421875 -0.71875 -0.581785 0 0 1
0.421875 -0.710938 -0.601175 0 0 1
0.421875 -0.703125 -0.604543 0 0 1
0.421875 -0.695312 -0.76444 0 0 1
0.421875 -0.6875 -0.790878 0 0 1
0.421875 -0.679688 -0.795866 0 0 1
0.421875 -0.671875 -0.802379 0 0 1
0.421875 -0.664062 -0.802589 0 0 1
0.421875 -0.65625 -0.806191 0 0 1
0.421875 -0.648438 -0.689019 0 0 1
0.421875 -0.640625 -0.80985 0 0 1
0.421875 -0.632812 -0.681732 0 0 1
0.421875 -0.625 -0.806014 0 0 1
0.421875 -0.617188 -0.680477 0 0 1
0.421875 -0.609375 -0.877171 0 0 1
0.421875 -0.601562 -0.884749 0 0 1
0.421875 -0.59375 -0.883578 0 0 1
0.421875 -0.585938 -0.884649 0 0 1
0.421875 -0.578125 -0.882994 0 0 1
0.421875 -0.570312 -0.883553 0 0 1
0.421875 -0.5625 -0.881099 0 0 1
0.421875 -0.554688 -0.876868 0 0 1
0.421875 -0.546875 -0.873617 0 0 1
0.421875 -0.539062 -0.869906 0 0 1
0.421875 -0.53125 -0.865654 0 0 1
0.421875 -0.523438 -0.832977 0 0 1
0.421875 -0.515625 -0.85988 0 0 1
0.421875 -0.507812 -0.852503 0 0 1
0.421875 -0.5 -0.848965 0 0 1
0.421875 -0.492188 -0.840068 0 0 1
0.421875 -0.484375 -0.844288 0 0 1
0.421875 -0.476562 -0.796275 0 0 1
0.421875 -0.46875 -0.682959 0 0 1
0.421875 -0.460938 -0.799694 0 0 1
0.421875 -0.453125 -0.802169 0 0 1
0.421875 -0.445312 -0.689444 0 0 1
0.421875 -0.4375 -0.798105 0 0 1
0.421875 -0.429688 -0.797447 0 0 1
0.421875 -0.421875 -0.792483 0 0 1
0.429688 -0.71875 -0.595071 0 0 1
0.429688 -0.710938 -0.584231 0 0 1
0.429688 -0.703125 -0.600005 0 0 1
0.429688 -0.695312 -0.731124 0 0 1
0.429688 -0.6875 -0.758 0 0 1
0.429688 -0.679688 -0.786095 0 0 1
0.429688 -0.671875 -0.787764 0 0 1
0.429688 -0.664062 -0.794314 0 0 1
0.429688 -0.65625 -0.795718 0 0 1
0.429688 -0.648438 -0.799619 0 0 1
0.429688 -0.640625 -0.688318 0 0 1
0.429688 -0.632812 -0.799977 0 0 1
0.429688 -0.625 -0.79794 0 0 1
0.429688 -0.617188 -0.805485 0 0 1
0.429688 -0.609375 -0.805866 0 0 1
0.429688 -0.601562 -0.673771 0 0 1
0.429688 -0.59375 -0.875723 0 0 1
0.429688 -0.585938 -0.872067 0 0 1
0.429688 -0.578125 -0.879442 0 0 1
0.429688 -0.570312 -0.880084 0 0 1
0.429688 -0.5625 -0.877083 0 0 1
0.429688 -0.554688 -0.876526 0 0 1
0.429688 -0.546875 -0.871337 0 0 1
0.429688 -0.539062 -0.868396 0 0 1
0.429688 -0.53125 -0.668644 0 0 1
0.429688 -0.523438 -0.830117 0 0 1
0.429688 -0.515625 -0.861288 0 0 1
0.429688 -0.507812 -0.857578 0 0 1
0.429688 -0.5 -0.824335 0 0 1
0.429688 -0.492188 -0.850892 0 0 1
0.429688 -0.484375 -0.824264 0 0 1
0.429688 -0.476562 -0.844853 0 0 1
0.429688 -0.46875 -0.840389 0 0 1
0.429688 -0.460938 -0.841694 0 0 1
0.429688 -0.453125 -0.830616 0 0 1
0.429688 -0.445312 -0.8392 0 0 1
0.429688 -0.4375 -0.836486 0 0 1
0.429688 -0.429688 -0.824731 0 0 1
0.429688 -0.421875 -0.831159 0 0 1
0.429688 -0.414062 -0.807174 0 0 1
0.429688 -0.40625 -0.819937 0 0 1
0.4375 -0.703125 -0.57765 0 0 1
0.4375 -0.695312 -0.592938 0 0 1
0.4375 -0.6875 -0.726169 0 0 1
0.4375 -0.679688 -0.757568 0 0 1
0.4375 -0.671875 -0.776945 0 0 1
0.4375 -0.664062 -0.785569 0 0 1
0.4375 -0.65625 -0.781793 0 0 1
0.4375 -0.648438 -0.788417 0 0 1
0.4375 -0.640625 -0.794693 0 0 1
0.4375 -0.632812 -0.790127 0 0 1
0.4375 -0.625 -0.794098 0 0 1
0.4375 -0.617188 -0.792167 0 0 1
0.4375 -0.609375 -0.794244 0 0 1
0.4375 -0.601562 -0.795381 0 0 1
0.4375 -0.59375 -0.799671 0 0 1
0.4375 -0.585938 -0.86271 0 0 1
0.4375 -0.578125 -0.869121 0 0 1
0.4375 -0.570312 -0.85465 0 0 1
0.4375 -0.5625 -0.867934 0 0 1
0.4375 -0.554688 -0.871505 0 0 1
0.4375 -0.546875 -0.870203 0 0 1
0.4375 -0.539062 -0.834915 0 0 1
0.4375 -0.53125 -0.866057 0 0 1
0.4375 -0.523438 -0.862433 0 0 1
0.4375 -0.515625 -0.859929 0 0 1
0.4375 -0.507812 -0.858493 0 0 1
0.4375 -0.5 -0.854304 0 0 1
0.4375 -0.492188 -0.851981 0 0 1
0.4375 -0.484375 -0.850218 0 0 1
0.4375 -0.476562 -0.846646 0 0 1
0.4375 -0.46875 -0.845613 0 0 1
0.4375 -0.460938 -0.844592 0 0 1
0.4375 -0.453125 -0.843268 0 0 1
0.4375 -0.445312 -0.655968 0 0 1
0.4375 -0.4375 -0.841022 0 0 1
0.4375 -0.429688 -0.83863 0 0 1
0.4375 -0.421875 -0.836307 0 0 1
0.4375 -0.414062 -0.833426 0 0 1
0.4375 -0.40625 -0.800424 0 0 1
0.4375 -0.398438 -0.821199 0 0 1
0.4375 -0.390625 -0.81309 0 0 1
0.4375 -0.382812 -0.803039 0 0 1
0.445312 -0.6875 -0.577641 0 0 1
0.445312 -0.679688 -0.589968 0 0 1
0.445312 -0.671875 -0.718353 0 0 1
0.445312 -0.664062 -0.761184 0 0 1
0.445312 -0.65625 -0.766712 0 0 1
0.445312 -0.648438 -0.77667 0 0 1
0.445312 -0.640625 -0.77058 0 0 1
0.445312 -0.632812 -0.78563 0 0 1
0.445312 -0.625 -0.768965 0 0 1
0.445312 -0.617188 -0.777412 0 0 1
0.445312 -0.609375 -0.787518 0 0 1
0.445312 -0.601562 -0.784401 0 0 1
0.445312 -0.59375 -0.781232 0 0 1
0.445312 -0.585938 -0.787737 0 0 1
0.445312 -0.578125 -0.785148 0 0 1
0.445312 -0.570312 -0.864243 0 0 1
0.445312 -0.5625 -0.854057 0 0 1
0.445312 -0.554688 -0.863299 0 0 1
0.445312 -0.546875 -0.858891 0 0 1
0.445312 -0.539062 -0.836013 0 0 1
0.445312 -0.53125 -0.86052 0 0 1
0.445312 -0.523438 -0.827114 0 0 1
0.445312 -0.515625 -0.820894 0 0 1
0.445312 -0.507812 -0.855566 0 0 1
0.445312 -0.5 -0.817432 0 0 1
0.445312 -0.492188 -0.852673 0 0 1
0.445312 -0.476562 -0.801863 0 0 1
0.445312 -0.46875 -0.808135 0 0 1
0.445312 -0.460938 -0.845433 0 0 1
0.445312 -0.445312 -0.84294 0 0 1
0.445312 -0.4375 -0.841996 0 0 1
0.445312 -0.429688 -0.840434 0 0 1
0.445312 -0.421875 -0.646245 0 0 1
0.445312 -0.414062 -0.836685 0 0 1
0.445312 -0.40625 -0.833839 0 0 1
0.445312 -0.398438 -0.83049 0 0 1
0.445312 -0.390625 -0.828328 0 0 1
0.445312 -0.382812 -0.76917 0 0 1
0.445312 -0.375 -0.819029 0 0 1
0.445312 -0.367188 -0.801638 0 0 1
0.445312 -0.265625 -0.696214 0 0 1
0.445312 -0.257812 -0.687946 0 0 1
0.445312 -0.25 -0.695435 0 0 1
0.445312 -0.234375 -0.691061 0 0 1
0.453125 -0.671875 -0.587169 0 0 1
0.453125 -0.664062 -0.716755 0 0 1
0.453125 -0.65625 -0.727098 0 0 1
0.453125 -0.648438 -0.744383 0 0 1
0.453125 -0.640625 -0.761655 0 0 1
0.453125 -0.632812 -0.760869 0 0 1
0.453125 -0.625 -0.766095 0 0 1
0.453125 -0.617188 -0.758303 0 0 1
0.453125 -0.609375 -0.761376 0 0 1
0.453125 -0.601562 -0.764965 0 0 1
0.453125 -0.59375 -0.767478 0 0 1
0.453125 -0.585938 -0.767318 0 0 1
0.453125 -0.578125 -0.776195 0 0 1
0.453125 -0.570312 -0.775173 0 0 1
0.453125 -0.5625 -0.769855 0 0 1
0.453125 -0.554688 -0.777382 0 0 1
0.453125 -0.546875 -0.852495 0 0 1
0.453125 -0.539062 -0.852158 0 0 1
0.453125 -0.53125 -0.853435 0 0 1
0.453125 -0.523438 -0.855644 0 0 1
0.453125 -0.515625 -0.854523 0 0 1
0.453125 -0.507812 -0.849962 0 0 1
0.453125 -0.5 -0.814887 0 0 1
0.453125 -0.492188 -0.848286 0 0 1
0.453125 -0.484375 -0.848208 0 0 1
0.453125 -0.476562 -0.808524 0 0 1
0.453125 -0.46875 -0.846351 0 0 1
0.453125 -0.460938 -0.844204 0 0 1
0.453125 -0.453125 -0.84277 0 0 1
0.453125 -0.445312 -0.64775 0 0 1
0.453125 -0.4375 -0.801931 0 0 1
0.453125 -0.429688 -0.800881 0 0 1
0.453125 -0.421875 -0.633611 0 0 1
0.453125 -0.414062 -0.837316 0 0 1
0.453125 -0.398438 -0.637609 0 0 1
0.453125 -0.382812 -0.729219 0 0 1
0.453125 -0.375 -0.787173 0 0 1
0.453125 -0.367188 -0.810772 0 0 1
0.453125 -0.265625 -0.695292 0 0 1
0.453125 -0.257812 -0.705415 0 0 1
0.453125 -0.242188 -0.706985 0 0 1
0.453125 -0.226562 -0.697945 0 0 1
0.453125 -0.21875 -0.677939 0 0 1
0.453125 -0.210938 -0.693217 0 0 1
0.453125 -0.203125 -0.68486 0 0 1
0.453125 -0.195312 -0.691648 0 0 1
0.453125 -0.1875 -0.67722 0 0 1
0.460938 -0.664062 -0.583954 0 0 1
0.460938 -0.65625 -0.579055 0 0 1
0.460938 -0.648438 -0.565286 0 0 1
0.460938 -0.640625 -0.595185 0 0 1
0.460938 -0.632812 -0.721994 0 0 1
0.460938 -0.625 -0.732949 0 0 1
0.460938 -0.617188 -0.721097 0 0 1
0.460938 -0.609375 -0.727149 0 0 1
0.460938 -0.601562 -0.717164 0 0 1
0.460938 -0.59375 -0.730473 0 0 1
0.460938 -0.585938 -0.70974 0 0 1
0.460938 -0.578125 -0.739522 0 0 1
0.460938 -0.570312 -0.753993 0 0 1
0.460938 -0.5625 -0.748756 0 0 1
0.460938 -0.554688 -0.768149 0 0 1
0.460938 -0.546875 -0.77816 0 0 1
0.460938 -0.53125 -0.783372 0 0 1
0.460938 -0.523438 -0.837612 0 0 1
0.460938 -0.515625 -0.833433 0 0 1
0.460938 -0.507812 -0.838378 0 0 1
0.460938 -0.5 -0.84403 0 0 1
0.460938 -0.492188 -0.842192 0 0 1
0.460938 -0.484375 -0.841271 0 0 1
0.460938 -0.476562 -0.842872 0 0 1
0.460938 -0.46875 -0.80094 0 0 1
0.460938 -0.460938 -0.839432 0 0 1
0.460938 -0.453125 -0.839961 0 0 1
0.460938 -0.445312 -0.802068 0 0 1
0.460938 -0.4375 -0.838054 0 0 1
0.460938 -0.429688 -0.835679 0 0 1
0.460938 -0.421875 -0.836546 0 0 1
0.460938 -0.40625 -0.627157 0 0 1
0.460938 -0.398438 -0.832297 0 0 1
0.460938 -0.382812 -0.827479 0 0 1
0.460938 -0.375 -0.644983 0 0 1
0.460938 -0.367188 -0.773378 0 0 1
0.460938 -0.359375 -0.814412 0 0 1
0.460938 -0.351562 -0.803877 0 0 1
0.460938 -0.265625 -0.704945 0 0 1
0.460938 -0.257812 -0.709564 0 0 1
0.460938 -0.242188 -0.671463 0 0 1
0.460938 -0.226562 -0.711514 0 0 1
0.460938 -0.203125 -0.699596 0 0 1
0.460938 -0.195312 -0.692582 0 0 1
0.460938 -0.1875 -0.669399 0 0 1
0.460938 -0.171875 -0.683751 0 0 1
0.46875 -0.648438 -0.565801 0 0 1
0.46875 -0.640625 -0.582415 0 0 1
0.46875 -0.632812 -0.556805 0 0 1
0.46875 -0.609375 -0.599272 0 0 1
0.46875 -0.601562 -0.601703 0 0 1
0.46875 -0.585938 -0.601205 0 0 1
0.46875 -0.578125 -0.706738 0 0 1
0.46875 -0.570312 -0.724694 0 0 1
0.46875 -0.5625 -0.729421 0 0 1
0.46875 -0.554688 -0.72837 0 0 1
0.46875 -0.546875 -0.751514 0 0 1
0.46875 -0.539062 -0.763008 0 0 1
0.46875 -0.53125 -0.770039 0 0 1
0.46875 -0.523438 -0.785575 0 0 1
0.46875 -0.515625 -0.653344 0 0 1
0.46875 -0.507812 -0.826889 0 0 1
0.46875 -0.5 -0.793841 0 0 1
0.46875 -0.492188 -0.824609 0 0 1
0.46875 -0.484375 -0.827196 0 0 1
0.46875 -0.476562 -0.836079 0 0 1
0.46875 -0.46875 -0.800173 0 0 1
0.46875 -0.460938 -0.801343 0 0 1
0.46875 -0.445312 -0.835441 0 0 1
0.46875 -0.429688 -0.833267 0 0 1
0.46875 -0.421875 -0.625445 0 0 1
0.46875 -0.40625 -0.830608 0 0 1
0.46875 -0.398438 -0.830353 0 0 1
0.46875 -0.382812 -0.825475 0 0 1
0.46875 -0.375 -0.81874 0 0 1
0.46875 -0.367188 -0.818937 0 0 1
0.46875 -0.359375 -0.769249 0 0 1
0.46875 -0.351562 -0.807851 0 0 1
0.46875 -0.34375 -0.748065 0 0 1
0.46875 -0.265625 -0.699718 0 0 1
0.46875 -0.257812 -0.704208 0 0 1
0.46875 -0.25 -0.670443 0 0 1
0.46875 -0.242188 -0.711891 0 0 1
0.46875 -0.226562 -0.712578 0 0 1
0.46875 -0.21875 -0.660701 0 0 1
0.46875 -0.210938 -0.711683 0 0 1
0.46875 -0.203125 -0.662505 0 0 1
0.46875 -0.195312 -0.705878 0 0 1
0.46875 -0.179688 -0.660634 0 0 1
0.46875 -0.171875 -0.694038 0 0 1
0.46875 -0.164062 -0.667324 0 0 1
0.46875 -0.15625 -0.680824 0 0 1
0.46875 -0.148438 -0.673445 0 0 1
0.46875 -0.140625 -0.685974 0 0 1
0.476562 -0.632812 -0.58651 0 0 1
0.476562 -0.625 -0.590732 0 0 1
0.476562 -0.617188 -0.594874 0 0 1
0.476562 -0.601562 -0.550478 0 0 1
0.476562 -0.59375 -0.548553 0 0 1
0.476562 -0.585938 -0.602483 0 0 1
0.476562 -0.578125 -0.602631 0 0 1
0.476562 -0.570312 -0.551358 0 0 1
0.476562 -0.5625 -0.696226 0 0 1
0.476562 -0.554688 -0.713419 0 0 1
0.476562 -0.546875 -0.718218 0 0 1
0.476562 -0.539062 -0.721957 0 0 1
0.476562 -0.53125 -0.755857 0 0 1
0.476562 -0.523438 -0.765307 0 0 1
0.476562 -0.515625 -0.65218 0 0 1
0.476562 -0.507812 -0.783994 0 0 1
0.476562 -0.5 -0.594854 0 0 1
0.476562 -0.492188 -0.788499 0 0 1
0.476562 -0.484375 -0.816584 0 0 1
0.476562 -0.476562 -0.594162 0 0 1
0.476562 -0.46875 -0.820777 0 0 1
0.476562 -0.460938 -0.831455 0 0 1
0.476562 -0.453125 -0.824463 0 0 1
0.476562 -0.445312 -0.829957 0 0 1
0.476562 -0.4375 -0.827377 0 0 1
0.476562 -0.429688 -0.828422 0 0 1
0.476562 -0.414062 -0.825868 0 0 1
0.476562 -0.398438 -0.822142 0 0 1
0.476562 -0.390625 -0.596979 0 0 1
0.476562 -0.382812 -0.821448 0 0 1
0.476562 -0.375 -0.597431 0 0 1
0.476562 -0.367188 -0.590498 0 0 1
0.476562 -0.359375 -0.613311 0 0 1
0.476562 -0.351562 -0.767373 0 0 1
0.476562 -0.34375 -0.796994 0 0 1
0.476562 -0.335938 -0.773597 0 0 1
0.476562 -0.328125 -0.686395 0 0 1
0.476562 -0.28125 -0.690026 0 0 1
0.476562 -0.265625 -0.698596 0 0 1
0.476562 -0.257812 -0.672344 0 0 1
0.476562 -0.25 -0.710159 0 0 1
0.476562 -0.242188 -0.712949 0 0 1
0.476562 -0.234375 -0.658993 0 0 1
0.476562 -0.226562 -0.714414 0 0 1
0.476562 -0.21875 -0.651925 0 0 1
0.476562 -0.210938 -0.714153 0 0 1
0.476562 -0.195312 -0.653292 0 0 1
0.476562 -0.1875 -0.709892 0 0 1
0.476562 -0.171875 -0.700603 0 0 1
0.476562 -0.15625 -0.692644 0 0 1
0.476562 -0.148438 -0.697533 0 0 1
0.476562 -0.132812 -0.656031 0 0 1
0.476562 -0.125 -0.672458 0 0 1
0.476562 -0.117188 -0.673284 0 0 1
0.484375 -0.625 -0.581726 0 0 1
0.484375 -0.617188 -0.571679 0 0 1
0.484375 -0.609375 -0.550177 0 0 1
0.484375 -0.601562 -0.591872 0 0 1
0.484375 -0.59375 -0.597668 0 0 1
0.484375 -0.578125 -0.601748 0 0 1
0.484375 -0.570312 -0.543974 0 0 1
0.484375 -0.5625 -0.544422 0 0 1
0.484375 -0.554688 -0.550682 0 0 1
0.484375 -0.546875 -0.699574 0 0 1
0.484375 -0.539062 -0.715126 0 0 1
0.484375 -0.53125 -0.700965 0 0 1
0.484375 -0.523438 -0.732729 0 0 1
0.484375 -0.515625 -0.772741 0 0 1
0.484375 -0.507812 -0.777037 0 0 1
0.484375 -0.5 -0.602572 0 0 1
0.484375 -0.492188 -0.781285 0 0 1
0.484375 -0.484375 -0.793354 0 0 1
0.484375 -0.46875 -0.793668 0 0 1
0.484375 -0.460938 -0.568573 0 0 1
0.484375 -0.453125 -0.811388 0 0 1
0.484375 -0.445312 -0.805087 0 0 1
0.484375 -0.4375 -0.801295 0 0 1
0.484375 -0.429688 -0.820278 0 0 1
0.484375 -0.421875 -0.621792 0 0 1
0.484375 -0.414062 -0.599591 0 0 1
0.484375 -0.40625 -0.589107 0 0 1
0.484375 -0.398438 -0.596458 0 0 1
0.484375 -0.390625 -0.582862 0 0 1
0.484375 -0.382812 -0.817164 0 0 1
0.484375 -0.375 -0.814491 0 0 1
0.484375 -0.367188 -0.810921 0 0 1
0.484375 -0.351562 -0.804552 0 0 1
0.484375 -0.34375 -0.795989 0 0 1
0.484375 -0.335938 -0.595537 0 0 1
0.484375 -0.328125 -0.778363 0 0 1
0.484375 -0.320312 -0.699328 0 0 1
0.484375 -0.304688 -0.714253 0 0 1
0.484375 -0.296875 -0.694339 0 0 1
0.484375 -0.289062 -0.70656 0 0 1
0.484375 -0.273438 -0.698969 0 0 1
0.484375 -0.265625 -0.676881 0 0 1
0.484375 -0.25 -0.668268 0 0 1
0.484375 -0.242188 -0.711985 0 0 1
0.484375 -0.195312 -0.714547 0 0 1
0.484375 -0.171875 -0.709822 0 0 1
0.484375 -0.15625 -0.701628 0 0 1
0.484375 -0.148438 -0.648939 0 0 1
0.484375 -0.140625 -0.655877 0 0 1
0.484375 -0.125 -0.690863 0 0 1
0.484375 -0.109375 -0.657302 0 0 1
0.484375 -0.101562 -0.675917 0 0 1
0.492188 -0.609375 -0.578518 0 0 1
0.492188 -0.601562 -0.584907 0 0 1
0.492188 -0.59375 -0.5854 0 0 1
0.492188 -0.585938 -0.588634 0 0 1
0.492188 -0.5625 -0.540718 0 0 1
0.492188 -0.554688 -0.599153 0 0 1
0.492188 -0.53125 -0.706893 0 0 1
0.492188 -0.523438 -0.686564 0 0 1
0.492188 -0.515625 -0.717136 0 0 1
0.492188 -0.507812 -0.752376 0 0 1
0.492188 -0.5 -0.760793 0 0 1
0.492188 -0.492188 -0.773164 0 0 1
0.492188 -0.484375 -0.781646 0 0 1
0.492188 -0.46875 -0.789199 0 0 1
0.492188 -0.460938 -0.792531 0 0 1
0.492188 -0.453125 -0.621612 0 0 1
0.492188 -0.4375 -0.811238 0 0 1
0.492188 -0.429688 -0.81038 0 0 1
0.492188 -0.421875 -0.618801 0 0 1
0.492188 -0.414062 -0.810551 0 0 1
0.492188 -0.40625 -0.817112 0 0 1
0.492188 -0.398438 -0.817821 0 0 1
0.492188 -0.390625 -0.814091 0 0 1
0.492188 -0.375 -0.80846 0 0 1
0.492188 -0.367188 -0.553728 0 0 1
0.492188 -0.351562 -0.800475 0 0 1
0.492188 -0.34375 -0.794927 0 0 1
0.492188 -0.335938 -0.787649 0 0 1
0.492188 -0.328125 -0.763925 0 0 1
0.492188 -0.320312 -0.593732 0 0 1
0.492188 -0.3125 -0.731881 0 0 1
0.492188 -0.304688 -0.723939 0 0 1
0.492188 -0.296875 -0.673039 0 0 1
0.492188 -0.289062 -0.673315 0 0 1
0.492188 -0.28125 -0.713905 0 0 1
0.492188 -0.273438 -0.671327 0 0 1
0.492188 -0.265625 -0.70841 0 0 1
0.492188 -0.25 -0.705019 0 0 1
0.492188 -0.226562 -0.714254 0 0 1
0.492188 -0.203125 -0.714234 0 0 1
0.492188 -0.179688 -0.714079 0 0 1
0.492188 -0.15625 -0.707953 0 0 1
0.492188 -0.140625 -0.635867 0 0 1
0.492188 -0.125 -0.698314 0 0 1
0.492188 -0.117188 -0.628938 0 0 1
0.492188 -0.109375 -0.692557 0 0 1
0.492188 -0.09375 -0.679306 0 0 1
0.492188 -0.0859375 -0.646263 0 0 1
0.492188 -0.078125 -0.659143 0 0 1
0.5 -0.601562 -0.55708 0 0 1
0.5 -0.59375 -0.572834 0 0 1
0.5 -0.585938 -0.545238 0 0 1
0.5 -0.578125 -0.589135 0 0 1
0.5 -0.5625 -0.593683 0 0 1
0.5 -0.546875 -0.593189 0 0 1
0.5 -0.539062 -0.594621 0 0 1
0.5 -0.53125 -0.538642 0 0 1
0.5 -0.515625 -0.70299 0 0 1
0.5 -0.507812 -0.70478 0 0 1
0.5 -0.5 -0.719509 0 0 1
0.5 -0.492188 -0.752811 0 0 1
0.5 -0.484375 -0.765676 0 0 1
0.5 -0.476562 -0.77725 0 0 1
0.5 -0.46875 -0.784815 0 0 1
0.5 -0.460938 -0.622534 0 0 1
0.5 -0.453125 -0.787578 0 0 1
0.5 -0.445312 -0.7923 0 0 1
0.5 -0.429688 -0.793926 0 0 1
0.5 -0.421875 -0.79745 0 0 1
0.5 -0.414062 -0.800432 0 0 1
0.5 -0.40625 -0.810784 0 0 1
0.5 -0.398438 -0.807303 0 0 1
0.5 -0.390625 -0.60254 0 0 1
0.5 -0.375 -0.801598 0 0 1
0.5 -0.351562 -0.79728 0 0 1
0.5 -0.335938 -0.785603 0 0 1
0.5 -0.320312 -0.773373 0 0 1
0.5 -0.3125 -0.746771 0 0 1
0.5 -0.304688 -0.647424 0 0 1
0.5 -0.289062 -0.717114 0 0 1
0.5 -0.257812 -0.709375 0 0 1
0.5 -0.25 -0.657369 0 0 1
0.5 -0.234375 -0.708538 0 0 1
0.5 -0.226562 -0.710471 0 0 1
0.5 -0.210938 -0.638278 0 0 1
0.5 -0.195312 -0.632019 0 0 1
0.5 -0.1875 -0.713999 0 0 1
0.5 -0.164062 -0.710646 0 0 1
0.5 -0.15625 -0.626646 0 0 1
0.5 -0.148438 -0.706871 0 0 1
0.5 -0.125 -0.70154 0 0 1
0.5 -0.109375 -0.696813 0 0 1
0.5 -0.0859375 -0.681919 0 0 1
0.5 -0.0703125 -0.668418 0 0 1
0.507812 -0.585938 -0.555637 0 0 1
0.507812 -0.578125 -0.576043 0 0 1
0.507812 -0.570312 -0.558108 0 0 1
0.507812 -0.5625 -0.579643 0 0 1
0.507812 -0.554688 -0.585874 0 0 1
0.507812 -0.546875 -0.588093 0 0 1
0.507812 -0.523438 -0.59362 0 0 1
0.507812 -0.515625 -0.538446 0 0 1
0.507812 -0.5 -0.707343 0 0 1
0.507812 -0.492188 -0.745636 0 0 1
0.507812 -0.484375 -0.755365 0 0 1
0.507812 -0.476562 -0.768449 0 0 1
0.507812 -0.46875 -0.623193 0 0 1
0.507812 -0.460938 -0.771854 0 0 1
0.507812 -0.453125 -0.781775 0 0 1
0.507812 -0.445312 -0.607994 0 0 1
0.507812 -0.429688 -0.788858 0 0 1
0.507812 -0.421875 -0.603918 0 0 1
0.507812 -0.414062 -0.603188 0 0 1
0.507812 -0.40625 -0.543794 0 0 1
0.507812 -0.398438 -0.795913 0 0 1
0.507812 -0.390625 -0.799399 0 0 1
0.507812 -0.375 -0.796969 0 0 1
0.507812 -0.367188 -0.537672 0 0 1
0.507812 -0.359375 -0.796551 0 0 1
0.507812 -0.351562 -0.790541 0 0 1
0.507812 -0.335938 -0.539309 0 0 1
0.507812 -0.320312 -0.772415 0 0 1
0.507812 -0.3125 -0.762856 0 0 1
0.507812 -0.304688 -0.729041 0 0 1
0.507812 -0.296875 -0.731849 0 0 1
0.507812 -0.289062 -0.718056 0 0 1
0.507812 -0.273438 -0.646256 0 0 1
0.507812 -0.265625 -0.713997 0 0 1
0.507812 -0.257812 -0.649519 0 0 1
0.507812 -0.21875 -0.708895 0 0 1
0.507812 -0.195312 -0.629526 0 0 1
0.507812 -0.1875 -0.712181 0 0 1
0.507812 -0.164062 -0.712055 0 0 1
0.507812 -0.148438 -0.708095 0 0 1
0.507812 -0.132812 -0.615785 0 0 1
0.507812 -0.117188 -0.61789 0 0 1
0.507812 -0.109375 -0.699683 0 0 1
0.507812 -0.09375 -0.691262 0 0 1
0.507812 -0.0546875 -0.668498 0 0 1
0.515625 -0.570312 -0.561971 0 0 1
0.515625 -0.5625 -0.554312 0 0 1
0.515625 -0.554688 -0.568177 0 0 1
0.515625 -0.539062 -0.536836 0 0 1
0.515625 -0.53125 -0.580316 0 0 1
0.515625 -0.523438 -0.582927 0 0 1
0.515625 -0.507812 -0.589748 0 0 1
0.515625 -0.5 -0.684104 0 0 1
0.515625 -0.492188 -0.676589 0 0 1
0.515625 -0.484375 -0.703403 0 0 1
0.515625 -0.476562 -0.747836 0 0 1
0.515625 -0.46875 -0.728115 0 0 1
0.515625 -0.460938 -0.765527 0 0 1
0.515625 -0.453125 -0.614823 0 0 1
0.515625 -0.445312 -0.775898 0 0 1
0.515625 -0.4375 -0.778081 0 0 1
0.515625 -0.429688 -0.603261 0 0 1
0.515625 -0.421875 -0.785199 0 0 1
0.515625 -0.414062 -0.787241 0 0 1
0.515625 -0.40625 -0.598251 0 0 1
0.515625 -0.390625 -0.595349 0 0 1
0.515625 -0.382812 -0.596584 0 0 1
0.515625 -0.375 -0.788355 0 0 1
0.515625 -0.359375 -0.789882 0 0 1
0.515625 -0.34375 -0.531264 0 0 1
0.515625 -0.335938 -0.783392 0 0 1
0.515625 -0.3125 -0.761099 0 0 1
0.515625 -0.304688 -0.607953 0 0 1
0.515625 -0.296875 -0.741311 0 0 1
0.515625 -0.289062 -0.563379 0 0 1
0.515625 -0.28125 -0.635977 0 0 1
0.515625 -0.273438 -0.715921 0 0 1
0.515625 -0.257812 -0.712413 0 0 1
0.515625 -0.242188 -0.711087 0 0 1
0.515625 -0.21875 -0.636732 0 0 1
0.515625 -0.171875 -0.621828 0 0 1
0.515625 -0.148438 -0.708058 0 0 1
0.515625 -0.117188 -0.703446 0 0 1
0.515625 -0.09375 -0.69494 0 0 1
0.515625 -0.0859375 -0.614556 0 0 1
0.515625 -0.0625 -0.611746 0 0 1
0.515625 -0.0546875 -0.61872 0 0 1
0.515625 -0.046875 -0.65131 0 0 1
0.515625 -0.0390625 -0.638555 0 0 1
0.523438 -0.546875 -0.563291 0 0 1
0.523438 -0.539062 -0.57295 0 0 1
0.523438 -0.53125 -0.545256 0 0 1
0.523438 -0.523438 -0.566356 0 0 1
0.523438 -0.515625 -0.57082 0 0 1
0.523438 -0.5 -0.587033 0 0 1
0.523438 -0.484375 -0.679898 0 0 1
0.523438 -0.476562 -0.689834 0 0 1
0.523438 -0.46875 -0.700056 0 0 1
0.523438 -0.460938 -0.743735 0 0 1
0.523438 -0.453125 -0.712954 0 0 1
0.523438 -0.445312 -0.761955 0 0 1
0.523438 -0.4375 -0.763098 0 0 1
0.523438 -0.429688 -0.767101 0 0 1
0.523438 -0.421875 -0.773955 0 0 1
0.523438 -0.414062 -0.59373 0 0 1
0.523438 -0.40625 -0.776747 0 0 1
0.523438 -0.398438 -0.777044 0 0 1
0.523438 -0.390625 -0.783069 0 0 1
0.523438 -0.382812 -0.781718 0 0 1
0.523438 -0.375 -0.530191 0 0 1
0.523438 -0.359375 -0.780535 0 0 1
0.523438 -0.351562 -0.52801 0 0 1
0.523438 -0.335938 -0.775719 0 0 1
0.523438 -0.320312 -0.530118 0 0 1
0.523438 -0.304688 -0.749031 0 0 1
0.523438 -0.289062 -0.626457 0 0 1
0.523438 -0.273438 -0.718042 0 0 1
0.523438 -0.265625 -0.710314 0 0 1
0.523438 -0.242188 -0.705626 0 0 1
0.523438 -0.226562 -0.631617 0 0 1
0.523438 -0.195312 -0.706563 0 0 1
0.523438 -0.1875 -0.711716 0 0 1
0.523438 -0.179688 -0.7083 0 0 1
0.523438 -0.132812 -0.705662 0 0 1
0.523438 -0.09375 -0.699097 0 0 1
0.523438 -0.078125 -0.691146 0 0 1
0.523438 -0.0625 -0.683456 0 0 1
0.523438 -0.046875 -0.673333 0 0 1
0.523438 -0.0390625 -0.61299 0 0 1
0.523438 -0.03125 -0.65402 0 0 1
0.53125 -0.53125 -0.561141 0 0 1
0.53125 -0.523438 -0.551218 0 0 1
0.53125 -0.515625 -0.556286 0 0 1
0.53125 -0.507812 -0.561455 0 0 1
0.53125 -0.5 -0.571471 0 0 1
0.53125 -0.492188 -0.542414 0 0 1
0.53125 -0.484375 -0.576091 0 0 1
0.53125 -0.46875 -0.6671 0 0 1
0.53125 -0.460938 -0.683964 0 0 1
0.53125 -0.453125 -0.731492 0 0 1
0.53125 -0.445312 -0.732369 0 0 1
0.53125 -0.4375 -0.74575 0 0 1
0.53125 -0.429688 -0.750796 0 0 1
0.53125 -0.421875 -0.759625 0 0 1
0.53125 -0.414062 -0.593053 0 0 1
0.53125 -0.40625 -0.769435 0 0 1
0.53125 -0.398438 -0.588392 0 0 1
0.53125 -0.390625 -0.586439 0 0 1
0.53125 -0.382812 -0.773632 0 0 1
0.53125 -0.375 -0.526577 0 0 1
0.53125 -0.367188 -0.774036 0 0 1
0.53125 -0.359375 -0.525221 0 0 1
0.53125 -0.351562 -0.771303 0 0 1
0.53125 -0.328125 -0.764084 0 0 1
0.53125 -0.3125 -0.756236 0 0 1
0.53125 -0.304688 -0.528526 0 0 1
0.53125 -0.296875 -0.743606 0 0 1
0.53125 -0.289062 -0.735457 0 0 1
0.53125 -0.28125 -0.725067 0 0 1
0.53125 -0.25 -0.632281 0 0 1
0.53125 -0.234375 -0.629727 0 0 1
0.53125 -0.21875 -0.703422 0 0 1
0.53125 -0.210938 -0.623822 0 0 1
0.53125 -0.179688 -0.617658 0 0 1
0.53125 -0.15625 -0.70554 0 0 1
0.53125 -0.148438 -0.610715 0 0 1
0.53125 -0.09375 -0.601232 0 0 1
0.53125 -0.0625 -0.600172 0 0 1
0.53125 -0.03125 -0.614761 0 0 1
0.53125 -0.015625 -0.628937 0 0 1
0.53125 -0.0078125 -0.641061 0 0 1
0.539062 -0.492188 -0.550528 0 0 1
0.539062 -0.484375 -0.559757 0 0 1
0.539062 -0.476562 -0.561676 0 0 1
0.539062 -0.46875 -0.568679 0 0 1
0.539062 -0.453125 -0.666984 0 0 1
0.539062 -0.445312 -0.683447 0 0 1
0.539062 -0.4375 -0.72112 0 0 1
0.539062 -0.429688 -0.715052 0 0 1
0.539062 -0.421875 -0.748012 0 0 1
0.539062 -0.414062 -0.75992 0 0 1
0.539062 -0.40625 -0.530382 0 0 1
0.539062 -0.398438 -0.759215 0 0 1
0.539062 -0.390625 -0.762305 0 0 1
0.539062 -0.382812 -0.765485 0 0 1
0.539062 -0.367188 -0.765782 0 0 1
0.539062 -0.359375 -0.764013 0 0 1
0.539062 -0.34375 -0.522229 0 0 1
0.539062 -0.335938 -0.763123 0 0 1
0.539062 -0.328125 -0.52195 0 0 1
0.539062 -0.320312 -0.756434 0 0 1
0.539062 -0.3125 -0.524387 0 0 1
0.539062 -0.304688 -0.745498 0 0 1
0.539062 -0.296875 -0.738073 0 0 1
0.539062 -0.289062 -0.535324 0 0 1
0.539062 -0.273438 -0.61583 0 0 1
0.539062 -0.265625 -0.713439 0 0 1
0.539062 -0.25 -0.699012 0 0 1
0.539062 -0.226562 -0.697144 0 0 1
0.539062 -0.195312 -0.700109 0 0 1
0.539062 -0.1875 -0.701928 0 0 1
0.539062 -0.171875 -0.714859 0 0 1
0.539062 -0.15625 -0.702705 0 0 1
0.539062 -0.140625 -0.706955 0 0 1
0.539062 -0.125 -0.602279 0 0 1
0.539062 -0.101562 -0.701172 0 0 1
0.539062 -0.046875 -0.679637 0 0 1
0.539062 -0.03125 -0.66846 0 0 1
0.539062 -0.015625 -0.658214 0 0 1
0.539062 -0.0078125 -0.617733 0 0 1
0.546875 -0.453125 -0.561464 0 0 1
0.546875 -0.445312 -0.658843 0 0 1
0.546875 -0.4375 -0.671641 0 0 1
0.546875 -0.429688 -0.681325 0 0 1
0.546875 -0.421875 -0.534679 0 0 1
0.546875 -0.414062 -0.737843 0 0 1
0.546875 -0.40625 -0.737866 0 0 1
0.546875 -0.398438 -0.724176 0 0 1
0.546875 -0.390625 -0.752643 0 0 1
0.546875 -0.375 -0.525477 0 0 1
0.546875 -0.367188 -0.754665 0 0 1
0.546875 -0.351562 -0.752269 0 0 1
0.546875 -0.34375 -0.758159 0 0 1
0.546875 -0.335938 -0.75334 0 0 1
0.546875 -0.328125 -0.747236 0 0 1
0.546875 -0.3125 -0.748379 0 0 1
0.546875 -0.304688 -0.524762 0 0 1
0.546875 -0.296875 -0.728952 0 0 1
0.546875 -0.28125 -0.71745 0 0 1
0.546875 -0.273438 -0.709568 0 0 1
0.546875 -0.265625 -0.580248 0 0 1
0.546875 -0.257812 -0.699329 0 0 1
0.546875 -0.25 -0.62139 0 0 1
0.546875 -0.242188 -0.693115 0 0 1
0.546875 -0.234375 -0.62334 0 0 1
0.546875 -0.226562 -0.625792 0 0 1
0.546875 -0.210938 -0.62229 0 0 1
0.546875 -0.203125 -0.689328 0 0 1
0.546875 -0.179688 -0.615141 0 0 1
0.546875 -0.171875 -0.699804 0 0 1
0.546875 -0.15625 -0.712328 0 0 1
0.546875 -0.132812 -0.601869 0 0 1
0.546875 -0.09375 -0.594423 0 0 1
0.546875 -0.078125 -0.694872 0 0 1
0.546875 -0.0703125 -0.592295 0 0 1
0.546875 -0.0625 -0.688015 0 0 1
0.546875 -0.0546875 -0.587466 0 0 1
0.546875 -0.03125 -0.588208 0 0 1
0.546875 -0.015625 -0.600711 0 0 1
0.546875 0 -0.638291 0 0 1
0.546875 0.0078125 -0.624438 0 0 1
0.554688 -0.429688 -0.642197 0 0 1
0.554688 -0.421875 -0.669185 0 0 1
0.554688 -0.414062 -0.68064 0 0 1
0.554688 -0.40625 -0.681741 0 0 1
0.554688 -0.398438 -0.699834 0 0 1
0.554688 -0.390625 -0.727729 0 0 1
0.554688 -0.382812 -0.737453 0 0 1
0.554688 -0.375 -0.743874 0 0 1
0.554688 -0.367188 -0.746593 0 0 1
0.554688 -0.359375 -0.708412 0 0 1
0.554688 -0.34375 -0.739416 0 0 1
0.554688 -0.335938 -0.522914 0 0 1
0.554688 -0.328125 -0.740294 0 0 1
0.554688 -0.320312 -0.738732 0 0 1
0.554688 -0.3125 -0.522962 0 0 1
0.554688 -0.304688 -0.735863 0 0 1
0.554688 -0.296875 -0.723534 0 0 1
0.554688 -0.289062 -0.715746 0 0 1
0.554688 -0.28125 -0.537513 0 0 1
0.554688 -0.273438 -0.707286 0 0 1
0.554688 -0.257812 -0.693483 0 0 1
0.554688 -0.242188 -0.686251 0 0 1
0.554688 -0.234375 -0.687705 0 0 1
0.554688 -0.210938 -0.681111 0 0 1
0.554688 -0.203125 -0.623722 0 0 1
0.554688 -0.1875 -0.688205 0 0 1
0.554688 -0.179688 -0.69261 0 0 1
0.554688 -0.164062 -0.608201 0 0 1
0.554688 -0.15625 -0.698866 0 0 1
0.554688 -0.148438 -0.700775 0 0 1
0.554688 -0.132812 -0.592228 0 0 1
0.554688 -0.117188 -0.699395 0 0 1
0.554688 -0.109375 -0.698181 0 0 1
0.554688 -0.09375 -0.59005 0 0 1
0.554688 -0.0625 -0.582731 0 0 1
0.554688 -0.0546875 -0.688059 0 0 1
0.554688 -0.0390625 -0.680833 0 0 1
0.554688 -0.0078125 -0.660199 0 0 1
0.554688 0.0078125 -0.596931 0 0 1
0.554688 0.015625 -0.602996 0 0 1
0.5625 -0.421875 -0.627731 0 0 1
0.5625 -0.414062 -0.642018 0 0 1
0.5625 -0.40625 -0.658736 0 0 1
0.5625 -0.398438 -0.598507 0 0 1
0.5625 -0.390625 -0.671753 0 0 1
0.5625 -0.382812 -0.560612 0 0 1
0.5625 -0.375 -0.674092 0 0 1
0.5625 -0.367188 -0.727574 0 0 1
0.5625 -0.359375 -0.734955 0 0 1
0.5625 -0.351562 -0.718708 0 0 1
0.5625 -0.34375 -0.710112 0 0 1
0.5625 -0.335938 -0.726955 0 0 1
0.5625 -0.328125 -0.712453 0 0 1
0.5625 -0.320312 -0.731222 0 0 1
0.5625 -0.3125 -0.715437 0 0 1
0.5625 -0.304688 -0.728518 0 0 1
0.5625 -0.296875 -0.715626 0 0 1
0.5625 -0.289062 -0.707512 0 0 1
0.5625 -0.273438 -0.695303 0 0 1
0.5625 -0.265625 -0.684512 0 0 1
0.5625 -0.257812 -0.673767 0 0 1
0.5625 -0.25 -0.597219 0 0 1
0.5625 -0.242188 -0.672177 0 0 1
0.5625 -0.234375 -0.614996 0 0 1
0.5625 -0.226562 -0.623978 0 0 1
0.5625 -0.21875 -0.670881 0 0 1
0.5625 -0.210938 -0.625673 0 0 1
0.5625 -0.1875 -0.619661 0 0 1
0.5625 -0.179688 -0.677328 0 0 1
0.5625 -0.132812 -0.595509 0 0 1
0.5625 -0.117188 -0.694236 0 0 1
0.5625 -0.109375 -0.59117 0 0 1
0.5625 -0.078125 -0.692204 0 0 1
0.5625 -0.03125 -0.577481 0 0 1
0.5625 -0.0234375 -0.579151 0 0 1
0.5625 -0.015625 -0.66447 0 0 1
0.5625 -0.0078125 -0.583306 0 0 1
0.5625 0 -0.588112 0 0 1
0.5625 0.015625 -0.639681 0 0 1
0.5625 0.0234375 -0.61662 0 0 1
0.570312 -0.40625 -0.618366 0 0 1
0.570312 -0.398438 -0.607528 0 0 1
0.570312 -0.390625 -0.643029 0 0 1
0.570312 -0.382812 -0.656371 0 0 1
0.570312 -0.375 -0.576765 0 0 1
0.570312 -0.367188 -0.647746 0 0 1
0.570312 -0.359375 -0.662019 0 0 1
0.570312 -0.351562 -0.6672 0 0 1
0.570312 -0.34375 -0.653357 0 0 1
0.570312 -0.335938 -0.660935 0 0 1
0.570312 -0.328125 -0.66578 0 0 1
0.570312 -0.320312 -0.664076 0 0 1
0.570312 -0.3125 -0.670478 0 0 1
0.570312 -0.296875 -0.669102 0 0 1
0.570312 -0.289062 -0.673517 0 0 1
0.570312 -0.28125 -0.673549 0 0 1
0.570312 -0.273438 -0.545585 0 0 1
0.570312 -0.265625 -0.672139 0 0 1
0.570312 -0.257812 -0.566843 0 0 1
