0.101562 0.101562 0.466886 0 0 1
0.101562 0.117188 0.0673921 0 0 1
0.101562 0.1875 0.455334 0 0 1
0.101562 0.25 0.455948 0 0 1
0.101562 0.507812 0.0891981 0 0 1
0.101562 0.539062 0.401346 0 0 1
0.101562 0.695312 0.437198 0 0 1
0.101562 0.726562 0.465724 0 0 1
0.101562 0.765625 0.571354 0 0 1
0.101562 0.84375 0.274118 0 0 1
0.101562 0.96875 0.616384 0 0 1
0.101562 1 0.246866 0 0 1
0.101562 1.10156 0.590354 0 0 1
0.101562 1.20312 0.471452 0 0 1
0.101562 1.21875 0.395562 0 0 1
0.109375 -0.671875 0.320226 0 0 1
0.109375 -0.648438 0.0731876 0 0 1
0.109375 -0.609375 -0.00386751 0 0 1
0.109375 -0.601562 0.41686 0 0 1
0.109375 0.015625 0.0846121 0 0 1
0.109375 0.484375 0.0808942 0 0 1
0.109375 0.5625 0.113328 0 0 1
0.109375 0.609375 0.138631 0 0 1
0.109375 0.71875 0.508222 0 0 1
0.109375 0.789062 0.255842 0 0 1
0.109375 0.796875 0.588176 0 0 1
0.109375 0.859375 0.5941 0 0 1
0.109375 0.929688 0.26139 0 0 1
0.109375 0.945312 0.587358 0 0 1
0.109375 1.02344 0.61709 0 0 1
0.109375 1.03125 0.24196 0 0 1
0.109375 1.07812 0.607926 0 0 1
0.109375 1.10938 0.257916 0 0 1
0.109375 1.21875 0.436848 0 0 1
0.117188 -0.703125 0.181287 0 0 1
0.117188 -0.671875 0.158466 0 0 1
0.117188 -0.65625 0.14125 0 0 1
0.117188 -0.554688 -0.0156463 0 0 1
0.117188 -0.4375 0.41069 0 0 1
0.117188 -0.414062 -0.0254816 0 0 1
0.117188 -0.359375 0.414668 0 0 1
0.117188 -0.234375 0.460308 0 0 1
0.117188 -0.179688 0.465886 0 0 1
0.117188 -0.140625 0.462794 0 0 1
0.117188 -0.015625 0.471276 0 0 1
0.117188 0.015625 0.46897 0 0 1
0.117188 0.265625 0.447726 0 0 1
0.117188 0.273438 0.0448608 0 0 1
0.117188 0.3125 0.0401909 0 0 1
0.117188 0.359375 0.040879 0 0 1
0.117188 0.398438 0.439868 0 0 1
0.117188 0.453125 0.0680959 0 0 1
0.117188 0.46875 0.421908 0 0 1
0.117188 0.59375 0.38837 0 0 1
0.117188 0.71875 0.211894 0 0 1
0.117188 0.75 0.234754 0 0 1
0.117188 0.820312 0.261572 0 0 1
0.117188 0.835938 0.600824 0 0 1
0.117188 0.851562 0.266308 0 0 1
0.117188 0.859375 0.621478 0 0 1
0.117188 1.14062 0.577842 0 0 1
0.117188 1.15625 0.279686 0 0 1
0.117188 1.16406 0.560166 0 0 1
0.117188 1.19531 0.513526 0 0 1
0.125 -0.757812 0.177029 0 0 1
0.125 -0.742188 0.204194 0 0 1
0.125 -0.734375 0.174836 0 0 1
0.125 -0.726562 0.233368 0 0 1
0.125 -0.65625 0.104228 0 0 1
0.125 -0.640625 0.0341218 0 0 1
0.125 -0.507812 0.41597 0 0 1
0.125 -0.46875 0.411088 0 0 1
0.125 -0.453125 -0.0274395 0 0 1
0.125 -0.390625 0.412268 0 0 1
0.125 -0.335938 -0.00599039 0 0 1
0.125 -0.28125 0.0227933 0 0 1
0.125 -0.273438 0.445906 0 0 1
0.125 -0.15625 0.06776 0 0 1
0.125 -0.09375 0.0787582 0 0 1
0.125 -0.0703125 0.0830462 0 0 1
0.125 -0.046875 0.470904 0 0 1
0.125 0.0625 0.0682955 0 0 1
0.125 0.164062 0.0545518 0 0 1
0.125 0.203125 0.447318 0 0 1
0.125 0.304688 0.449838 0 0 1
0.125 0.34375 0.448608 0 0 1
0.125 0.398438 0.0496337 0 0 1
0.125 0.421875 0.433532 0 0 1
0.125 0.5 0.0897281 0 0 1
0.125 0.554688 0.395722 0 0 1
0.125 0.640625 0.155096 0 0 1
0.125 0.664062 0.167078 0 0 1
0.125 0.6875 0.18861 0 0 1
0.125 0.75 0.585438 0 0 1
0.125 0.898438 0.623798 0 0 1
0.125 0.929688 0.604806 0 0 1
0.125 1 0.238282 0 0 1
0.125 1.00781 0.623962 0 0 1
0.125 1.07812 0.242584 0 0 1
0.125 1.19531 0.317022 0 0 1
0.125 1.21875 0.365188 0 0 1
0.132812 -0.789062 0.160493 0 0 1
0.132812 -0.75 0.141978 0 0 1
0.132812 -0.71875 0.265984 0 0 1
0.132812 -0.695312 0.137959 0 0 1
0.132812 -0.679688 0.28671 0 0 1
0.132812 -0.648438 0.341654 0 0 1
0.132812 -0.632812 0.377998 0 0 1
0.132812 -0.617188 0.400522 0 0 1
0.132812 -0.570312 0.421724 0 0 1
0.132812 -0.53125 0.419278 0 0 1
0.132812 -0.382812 -0.0216295 0 0 1
0.132812 -0.304688 0.432242 0 0 1
0.132812 -0.25 0.0425549 0 0 1
0.132812 0 0.0794291 0 0 1
0.132812 0.0859375 0.46721 0 0 1
0.132812 0.125 0.459468 0 0 1
0.132812 0.234375 0.0459023 0 0 1
0.132812 0.492188 0.415058 0 0 1
0.132812 0.671875 0.445582 0 0 1
0.132812 0.710938 0.519512 0 0 1
0.132812 0.71875 0.49004 0 0 1
0.132812 0.726562 0.57911 0 0 1
0.132812 0.773438 0.59547 0 0 1
0.132812 0.882812 0.262608 0 0 1
0.132812 0.984375 0.627266 0 0 1
0.132812 1.21094 0.340128 0 0 1
0.140625 -0.828125 0.145651 0 0 1
0.140625 -0.820312 0.177173 0 0 1
0.140625 -0.796875 0.215646 0 0 1
0.140625 -0.671875 0.130294 0 0 1
0.140625 -0.648438 0.0667837 0 0 1
0.140625 -0.601562 -0.000986695 0 0 1
0.140625 -0.53125 -0.019467 0 0 1
0.140625 -0.414062 0.409014 0 0 1
0.140625 -0.21875 0.462596 0 0 1
0.140625 -0.195312 0.0590298 0 0 1
0.140625 -0.0703125 0.468158 0 0 1
0.140625 0.0546875 0.468746 0 0 1
0.140625 0.203125 0.0445204 0 0 1
0.140625 0.242188 0.44911 0 0 1
0.140625 0.335938 0.0403955 0 0 1
0.140625 0.53125 0.406268 0 0 1
0.140625 0.59375 0.133189 0 0 1
0.140625 0.617188 0.145205 0 0 1
0.140625 0.796875 0.255162 0 0 1
0.140625 0.828125 0.261036 0 0 1
0.140625 0.835938 0.611942 0 0 1
0.140625 0.945312 0.2497 0 0 1
0.140625 1.05469 0.619684 0 0 1
0.140625 1.10938 0.600444 0 0 1
0.140625 1.125 0.25652 0 0 1
0.140625 1.15625 0.572128 0 0 1
0.140625 1.17188 0.551176 0 0 1
0.140625 1.21875 0.448254 0 0 1
0.148438 -0.867188 0.136239 0 0 1
0.148438 -0.851562 0.155823 0 0 1
0.148438 -0.84375 0.124595 0 0 1
0.148438 -0.8125 0.122949 0 0 1
0.148438 -0.75 0.261262 0 0 1
0.148438 -0.742188 0.114954 0 0 1
0.148438 -0.71875 0.117656 0 0 1
0.148438 -0.703125 0.290022 0 0 1
0.148438 -0.65625 0.310888 0 0 1
0.148438 -0.632812 0.352222 0 0 1
0.148438 -0.492188 0.40903 0 0 1
0.148438 -0.320312 0.0032568 0 0 1
0.148438 -0.257812 0.449616 0 0 1
0.148438 -0.15625 0.466962 0 0 1
0.148438 -0.132812 0.0688837 0 0 1
0.148438 -0.125 0.464534 0 0 1
0.148438 -0.078125 0.076031 0 0 1
0.148438 -0.0390625 0.0775611 0 0 1
0.148438 0.109375 0.0546899 0 0 1
0.148438 0.148438 0.0486002 0 0 1
0.148438 0.4375 0.4345 0 0 1
0.148438 0.617188 0.402012 0 0 1
0.148438 0.632812 0.418758 0 0 1
0.148438 0.65625 0.16386 0 0 1
0.148438 0.757812 0.242698 0 0 1
0.148438 0.90625 0.260956 0 0 1
0.148438 1.08594 0.610906 0 0 1
0.148438 1.14844 0.27422 0 0 1
0.148438 1.1875 0.532262 0 0 1
0.148438 1.20312 0.508646 0 0 1
0.148438 1.22656 0.39035 0 0 1
0.15625 -0.890625 0.155254 0 0 1
0.15625 -0.867188 0.181743 0 0 1
0.15625 -0.851562 0.198251 0 0 1
0.15625 -0.78125 0.255422 0 0 1
0.15625 -0.773438 0.10981 0 0 1
0.15625 -0.640625 0.329374 0 0 1
0.15625 -0.632812 0.0194168 0 0 1
0.15625 -0.59375 0.40689 0 0 1
0.15625 -0.484375 -0.024429 0 0 1
0.15625 -0.453125 0.405574 0 0 1
0.15625 -0.429688 -0.0255789 0 0 1
0.15625 -0.359375 0.408928 0 0 1
0.15625 -0.351562 -0.00975382 0 0 1
0.15625 -0.195312 0.465466 0 0 1
0.15625 -0.0078125 0.0733001 0 0 1
0.15625 0.359375 0.0415232 0 0 1
0.15625 0.390625 0.446714 0 0 1
0.15625 0.515625 0.0935786 0 0 1
0.15625 0.71875 0.213128 0 0 1
0.15625 0.867188 0.640836 0 0 1
0.15625 0.992188 0.235004 0 0 1
0.15625 1.21875 0.350634 0 0 1
0.164062 -0.914062 0.121457 0 0 1
0.164062 -0.890625 0.184828 0 0 1
0.164062 -0.882812 0.110194 0 0 1
0.164062 -0.835938 0.232482 0 0 1
0.164062 -0.804688 0.0943422 0 0 1
0.164062 -0.742188 0.0966389 0 0 1
0.164062 -0.695312 0.308638 0 0 1
0.164062 -0.679688 0.098716 0 0 1
0.164062 -0.609375 0.37266 0 0 1
0.164062 -0.570312 -0.00799596 0 0 1
0.164062 -0.375 -0.0173475 0 0 1
0.164062 -0.289062 0.435696 0 0 1
0.164062 -0.265625 0.0305882 0 0 1
0.164062 -0.21875 0.0533719 0 0 1
0.164062 -0.0078125 0.46514 0 0 1
0.164062 0.0390625 0.465582 0 0 1
0.164062 0.078125 0.0557537 0 0 1
0.164062 0.164062 0.452162 0 0 1
0.164062 0.1875 0.0390537 0 0 1
0.164062 0.203125 0.45026 0 0 1
0.164062 0.320312 0.458308 0 0 1
0.164062 0.335938 0.037117 0 0 1
0.164062 0.34375 0.455114 0 0 1
0.164062 0.421875 0.440714 0 0 1
0.164062 0.445312 0.0657971 0 0 1
0.164062 0.46875 0.425154 0 0 1
0.164062 0.539062 0.103804 0 0 1
0.164062 0.5625 0.402178 0 0 1
0.164062 0.570312 0.119798 0 0 1
0.164062 0.679688 0.179559 0 0 1
0.164062 0.703125 0.467592 0 0 1
0.164062 0.710938 0.538272 0 0 1
0.164062 0.765625 0.582946 0 0 1
0.164062 0.796875 0.594588 0 0 1
0.164062 0.84375 0.264144 0 0 1
0.164062 0.898438 0.61299 0 0 1
0.164062 0.929688 0.605184 0 0 1
0.164062 1 0.62717 0 0 1
0.164062 1.10938 0.249212 0 0 1
0.164062 1.1875 0.29817 0 0 1
0.164062 1.21875 0.448652 0 0 1
0.171875 -0.914062 0.162284 0 0 1
0.171875 -0.882812 0.211066 0 0 1
0.171875 -0.84375 0.0859454 0 0 1
0.171875 -0.789062 0.277948 0 0 1
0.171875 -0.765625 0.286216 0 0 1
0.171875 -0.710938 0.0999606 0 0 1
0.171875 -0.648438 0.0732961 0 0 1
0.171875 -0.640625 0.0405042 0 0 1
0.171875 -0.609375 0.00184011 0 0 1
0.171875 -0.554688 0.411642 0 0 1
0.171875 -0.515625 0.409212 0 0 1
0.171875 -0.40625 -0.0212768 0 0 1
0.171875 -0.382812 0.40359 0 0 1
0.171875 -0.242188 0.44816 0 0 1
0.171875 -0.0703125 0.0726349 0 0 1
0.171875 -0.0625 0.462412 0 0 1
0.171875 0.015625 0.0667388 0 0 1
0.171875 0.109375 0.0477145 0 0 1
0.171875 0.226562 0.0338104 0 0 1
0.171875 0.28125 0.460296 0 0 1
0.171875 0.296875 0.0338433 0 0 1
0.171875 0.484375 0.0798173 0 0 1
0.171875 0.507812 0.415472 0 0 1
0.171875 0.609375 0.140047 0 0 1
0.171875 0.773438 0.255182 0 0 1
0.171875 0.835938 0.596408 0 0 1
0.171875 0.867188 0.61334 0 0 1
0.171875 0.875 0.26744 0 0 1
0.171875 0.953125 0.245126 0 0 1
0.171875 1.10156 0.603704 0 0 1
0.171875 1.16406 0.558288 0 0 1
0.171875 1.22656 0.376138 0 0 1
0.179688 -0.960938 0.106073 0 0 1
0.179688 -0.9375 0.187468 0 0 1
0.179688 -0.929688 0.096406 0 0 1
0.179688 -0.867188 0.236112 0 0 1
0.179688 -0.820312 0.262982 0 0 1
0.179688 -0.796875 0.0774806 0 0 1
0.179688 -0.757812 0.0828831 0 0 1
0.179688 -0.726562 0.310074 0 0 1
0.179688 -0.46875 -0.0242146 0 0 1
0.179688 -0.414062 0.400088 0 0 1
0.179688 -0.203125 0.458006 0 0 1
0.179688 -0.164062 0.067539 0 0 1
0.179688 -0.132812 0.067807 0 0 1
0.179688 0.046875 0.0597491 0 0 1
0.179688 0.0859375 0.458404 0 0 1
0.179688 0.257812 0.0326214 0 0 1
0.179688 0.398438 0.0505085 0 0 1
0.179688 0.4375 0.436008 0 0 1
0.179688 0.578125 0.398838 0 0 1
0.179688 0.632812 0.151138 0 0 1
0.179688 0.648438 0.420158 0 0 1
0.179688 0.6875 0.439586 0 0 1
0.179688 0.71875 0.498898 0 0 1
0.179688 0.8125 0.26773 0 0 1
0.179688 0.945312 0.590292 0 0 1
0.179688 0.960938 0.61964 0 0 1
0.179688 1 0.236528 0 0 1
0.179688 1.03125 0.620028 0 0 1
0.179688 1.13281 0.583334 0 0 1
0.179688 1.14844 0.273456 0 0 1
0.179688 1.1875 0.528092 0 0 1
0.179688 1.21094 0.478952 0 0 1
0.1875 -1 0.129189 0 0 1
0.1875 -0.898438 0.230854 0 0 1
0.1875 -0.890625 0.0759797 0 0 1
0.1875 -0.867188 0.261518 0 0 1
0.1875 -0.625 0.0187082 0 0 1
0.1875 -0.609375 0.349332 0 0 1
0.1875 -0.578125 0.39196 0 0 1
0.1875 -0.53125 -0.0165642 0 0 1
0.1875 -0.335938 0.405804 0 0 1
0.1875 -0.21875 0.447884 0 0 1
0.1875 -0.164062 0.456112 0 0 1
0.1875 -0.0390625 0.0750971 0 0 1
0.1875 0.0078125 0.45916 0 0 1
0.1875 0.171875 0.0370729 0 0 1
0.1875 0.34375 0.0360763 0 0 1
0.1875 0.359375 0.459432 0 0 1
0.1875 0.515625 0.0920453 0 0 1
0.1875 0.546875 0.410324 0 0 1
0.1875 0.554688 0.107153 0 0 1
0.1875 0.625 0.406224 0 0 1
0.1875 0.726562 0.227604 0 0 1
0.1875 0.75 0.560518 0 0 1
0.1875 0.84375 0.274772 0 0 1
0.1875 0.875 0.591064 0 0 1
0.1875 1.07031 0.241014 0 0 1
0.1875 1.10156 0.250678 0 0 1
0.1875 1.21875 0.358614 0 0 1
0.1875 1.22656 0.4009 0 0 1
0.195312 -1.03906 0.124684 0 0 1
0.195312 -1.01562 0.0821853 0 0 1
0.195312 -0.984375 0.179043 0 0 1
0.195312 -0.976562 0.0689378 0 0 1
0.195312 -0.9375 0.0704606 0 0 1
0.195312 -0.929688 0.22424 0 0 1
0.195312 -0.875 0.0604939 0 0 1
0.195312 -0.835938 0.0576916 0 0 1
0.195312 -0.742188 0.0714073 0 0 1
0.195312 -0.710938 0.32749 0 0 1
0.195312 -0.648438 0.342382 0 0 1
0.195312 -0.5625 -0.00718439 0 0 1
0.195312 -0.53125 0.40403 0 0 1
0.195312 -0.46875 0.40181 0 0 1
0.195312 -0.445312 -0.0214652 0 0 1
0.195312 -0.382812 -0.0161005 0 0 1
0.195312 -0.335938 0.00127673 0 0 1
0.195312 -0.304688 0.422038 0 0 1
0.195312 -0.289062 0.0239711 0 0 1
0.195312 -0.273438 0.435072 0 0 1
0.195312 -0.109375 0.0712285 0 0 1
0.195312 -0.0546875 0.453784 0 0 1
0.195312 -0.015625 0.456264 0 0 1
0.195312 0.109375 0.449428 0 0 1
0.195312 0.140625 0.0413821 0 0 1
0.195312 0.203125 0.032022 0 0 1
0.195312 0.210938 0.454778 0 0 1
0.195312 0.421875 0.441802 0 0 1
0.195312 0.460938 0.0673778 0 0 1
0.195312 0.59375 0.127147 0 0 1
0.195312 0.710938 0.20949 0 0 1
0.195312 0.726562 0.530202 0 0 1
0.195312 0.828125 0.585254 0 0 1
0.195312 0.914062 0.269722 0 0 1
0.195312 1.03125 0.23802 0 0 1
0.195312 1.16406 0.286314 0 0 1
0.195312 1.17969 0.305928 0 0 1
0.195312 1.20312 0.500278 0 0 1
0.203125 -1.07031 0.126851 0 0 1
0.203125 -1.0625 0.0994177 0 0 1
0.203125 -1.04688 0.163674 0 0 1
0.203125 -1.02344 0.180187 0 0 1
0.203125 -0.820312 0.296144 0 0 1
0.203125 -0.804688 0.0596685 0 0 1
0.203125 -0.78125 0.0634682 0 0 1
0.203125 -0.757812 0.320624 0 0 1
0.203125 -0.671875 0.0671501 0 0 1
0.203125 -0.632812 0.0378127 0 0 1
0.203125 -0.59375 -0.00312436 0 0 1
0.203125 -0.492188 -0.0206774 0 0 1
0.203125 -0.375 0.399202 0 0 1
0.203125 -0.242188 0.0449784 0 0 1
0.203125 -0.0859375 0.44997 0 0 1
0.203125 -0.0078125 0.0720594 0 0 1
0.203125 0.0703125 0.0547476 0 0 1
0.203125 0.078125 0.448188 0 0 1
0.203125 0.171875 0.44699 0 0 1
0.203125 0.25 0.464104 0 0 1
0.203125 0.304688 0.467292 0 0 1
0.203125 0.3125 0.0296228 0 0 1
0.203125 0.6875 0.189927 0 0 1
0.203125 0.742188 0.479334 0 0 1
0.203125 0.765625 0.262546 0 0 1
0.203125 0.914062 0.585482 0 0 1
0.203125 1.07031 0.607302 0 0 1
0.203125 1.11719 0.260076 0 0 1
0.203125 1.14062 0.569824 0 0 1
0.203125 1.17969 0.51971 0 0 1
0.210938 -1.10938 0.108297 0 0 1
0.210938 -1.09375 0.0758665 0 0 1
0.210938 -1.08594 0.147496 0 0 1
0.210938 -1.04688 0.0589461 0 0 1
0.210938 -1.02344 0.209106 0 0 1
0.210938 -1.00781 0.0496166 0 0 1
0.210938 -0.976562 0.22619 0 0 1
0.210938 -0.921875 0.05124 0 0 1
0.210938 -0.90625 0.266008 0 0 1
0.210938 -0.867188 0.282596 0 0 1
0.210938 -0.6875 0.344308 0 0 1
0.210938 -0.554688 0.39443 0 0 1
0.210938 -0.4375 0.397294 0 0 1
0.210938 -0.28125 0.42451 0 0 1
0.210938 -0.234375 0.437466 0 0 1
0.210938 -0.21875 0.0540762 0 0 1
0.210938 0.0234375 0.448048 0 0 1
0.210938 0.0546875 0.0616632 0 0 1
0.210938 0.265625 0.0277271 0 0 1
0.210938 0.335938 0.465816 0 0 1
0.210938 0.390625 0.0427918 0 0 1
0.210938 0.492188 0.0769646 0 0 1
0.210938 0.632812 0.14635 0 0 1
0.210938 0.65625 0.16056 0 0 1
0.210938 0.664062 0.416956 0 0 1
0.210938 0.710938 0.430434 0 0 1
0.210938 0.75 0.517142 0 0 1
0.210938 0.78125 0.56239 0 0 1
0.210938 0.835938 0.287292 0 0 1
0.210938 0.953125 0.597972 0 0 1
0.210938 0.960938 0.254768 0 0 1
0.210938 0.984375 0.614338 0 0 1
0.210938 1 0.244126 0 0 1
0.210938 1.01562 0.611848 0 0 1
0.210938 1.20312 0.334024 0 0 1
0.210938 1.21875 0.391674 0 0 1
0.21875 -1.17969 0.0491934 0 0 1
0.21875 -1.17188 0.0745304 0 0 1
0.21875 -1.15625 0.114971 0 0 1
0.21875 -1.14844 0.0751801 0 0 1
0.21875 -1.08594 0.0435197 0 0 1
0.21875 -1.0625 0.196536 0 0 1
0.21875 -0.929688 0.261782 0 0 1
0.21875 -0.882812 0.0409451 0 0 1
0.21875 -0.84375 0.299692 0 0 1
0.21875 -0.820312 0.0453982 0 0 1
0.21875 -0.789062 0.31799 0 0 1
0.21875 -0.71875 0.0641952 0 0 1
0.21875 -0.601562 0.361052 0 0 1
0.21875 -0.367188 -0.00428927 0 0 1
0.21875 -0.34375 0.401532 0 0 1
0.21875 -0.320312 0.0143166 0 0 1
0.21875 -0.3125 0.40582 0 0 1
0.21875 -0.296875 0.0254023 0 0 1
0.21875 -0.1875 0.4399 0 0 1
0.21875 -0.179688 0.0675392 0 0 1
0.21875 -0.148438 0.072962 0 0 1
0.21875 -0.0390625 0.0812137 0 0 1
0.21875 0.140625 0.44172 0 0 1
0.21875 0.203125 0.0330153 0 0 1
0.21875 0.390625 0.452478 0 0 1
0.21875 0.414062 0.0487483 0 0 1
0.21875 0.46875 0.426344 0 0 1
0.21875 0.742188 0.244986 0 0 1
0.21875 0.789062 0.283868 0 0 1
0.21875 0.820312 0.569592 0 0 1
0.21875 0.875 0.289868 0 0 1
0.21875 0.890625 0.581104 0 0 1
0.21875 0.929688 0.270186 0 0 1
0.21875 1.07812 0.253004 0 0 1
0.21875 1.10156 0.58161 0 0 1
0.21875 1.14844 0.283994 0 0 1
0.21875 1.15625 0.544904 0 0 1
0.21875 1.19531 0.47977 0 0 1
0.21875 1.21094 0.455146 0 0 1
0.226562 -1.1875 0.0948193 0 0 1
0.226562 -1.17969 0.125783 0 0 1
0.226562 -1.14844 0.151021 0 0 1
0.226562 -1.03906 0.0380409 0 0 1
0.226562 -1.01562 0.231246 0 0 1
0.226562 -0.984375 0.24265 0 0 1
0.226562 -0.898438 0.286838 0 0 1
0.226562 -0.710938 0.349378 0 0 1
0.226562 -0.609375 0.0110068 0 0 1
0.226562 -0.539062 -0.0096885 0 0 1
0.226562 -0.421875 -0.0148968 0 0 1
0.226562 -0.140625 0.435186 0 0 1
0.226562 -0.0625 0.0821385 0 0 1
0.226562 0 0.0781767 0 0 1
0.226562 0.0625 0.437728 0 0 1
0.226562 0.101562 0.0491514 0 0 1
0.226562 0.148438 0.0393796 0 0 1
0.226562 0.34375 0.0355189 0 0 1
0.226562 0.359375 0.462304 0 0 1
0.226562 0.507812 0.41466 0 0 1
0.226562 0.546875 0.411048 0 0 1
0.226562 0.570312 0.109321 0 0 1
0.226562 0.585938 0.386186 0 0 1
0.226562 0.617188 0.135016 0 0 1
0.226562 0.632812 0.392266 0 0 1
0.226562 0.78125 0.530408 0 0 1
0.226562 0.835938 0.304326 0 0 1
0.226562 0.84375 0.567056 0 0 1
0.226562 0.867188 0.576252 0 0 1
0.226562 0.929688 0.577324 0 0 1
0.226562 1.11719 0.271774 0 0 1
0.226562 1.125 0.567132 0 0 1
0.226562 1.17188 0.30907 0 0 1
0.234375 -1.25781 0.0391779 0 0 1
0.234375 -1.24219 0.0124893 0 0 1
0.234375 -1.21875 0.0822394 0 0 1
0.234375 -1.19531 0.148585 0 0 1
0.234375 -1.17969 0.00935531 0 0 1
0.234375 -1.14062 0.0232472 0 0 1
0.234375 -1.11719 0.0235786 0 0 1
0.234375 -1.04688 0.235814 0 0 1
0.234375 -0.960938 0.267542 0 0 1
0.234375 -0.921875 0.28887 0 0 1
0.234375 -0.695312 0.0563221 0 0 1
0.234375 -0.679688 0.356096 0 0 1
0.234375 -0.65625 0.360298 0 0 1
0.234375 -0.632812 0.363326 0 0 1
0.234375 -0.570312 0.373468 0 0 1
0.234375 -0.5625 -0.00468171 0 0 1
0.234375 -0.460938 0.391704 0 0 1
0.234375 -0.257812 0.0437648 0 0 1
0.234375 -0.21875 0.42997 0 0 1
0.234375 -0.203125 0.0628846 0 0 1
0.234375 -0.09375 0.431002 0 0 1
0.234375 0.015625 0.433566 0 0 1
0.234375 0.0390625 0.433036 0 0 1
0.234375 0.117188 0.43369 0 0 1
0.234375 0.273438 0.467702 0 0 1
0.234375 0.296875 0.0321372 0 0 1
0.234375 0.414062 0.445078 0 0 1
0.234375 0.429688 0.0519793 0 0 1
0.234375 0.445312 0.43446 0 0 1
0.234375 0.5 0.0750809 0 0 1
0.234375 0.6875 0.407506 0 0 1
0.234375 0.710938 0.21555 0 0 1
0.234375 0.765625 0.492912 0 0 1
0.234375 0.953125 0.2718 0 0 1
0.234375 0.960938 0.590662 0 0 1
0.234375 1.01562 0.252874 0 0 1
0.234375 1.04688 0.255992 0 0 1
0.234375 1.05469 0.593124 0 0 1
0.234375 1.07812 0.583524 0 0 1
0.234375 1.17188 0.508148 0 0 1
0.234375 1.1875 0.33009 0 0 1
0.234375 1.20312 0.37574 0 0 1
0.242188 -1.28906 0.0447805 0 0 1
0.242188 -1.28125 0.0143046 0 0 1
0.242188 -1.27344 0.0734472 0 0 1
0.242188 -1.21094 -0.00205266 0 0 1
0.242188 -1.16406 0.184622 0 0 1
0.242188 -1.07812 0.0210805 0 0 1
0.242188 -1.04688 0.0196648 0 0 1
0.242188 -1.01562 0.0221097 0 0 1
0.242188 -0.898438 0.0271273 0 0 1
0.242188 -0.859375 0.318202 0 0 1
0.242188 -0.851562 0.0312526 0 0 1
0.242188 -0.804688 0.3322 0 0 1
0.242188 -0.765625 0.342866 0 0 1
0.242188 -0.742188 0.0510936 0 0 1
0.242188 -0.734375 0.351626 0 0 1
0.242188 -0.539062 0.38955 0 0 1
0.242188 -0.5 0.391928 0 0 1
0.242188 -0.460938 -0.0157317 0 0 1
0.242188 -0.390625 -0.00715077 0 0 1
0.242188 -0.320312 0.0222809 0 0 1
0.242188 -0.296875 0.408138 0 0 1
0.242188 -0.195312 0.426624 0 0 1
0.242188 -0.0234375 0.0850704 0 0 1
0.242188 -0.015625 0.429636 0 0 1
0.242188 0.117188 0.0507419 0 0 1
0.242188 0.171875 0.438816 0 0 1
0.242188 0.203125 0.44882 0 0 1
0.242188 0.21875 0.0323639 0 0 1
0.242188 0.484375 0.0632162 0 0 1
0.242188 0.625 0.374086 0 0 1
0.242188 0.664062 0.383086 0 0 1
0.242188 0.726562 0.238298 0 0 1
0.242188 0.742188 0.25925 0 0 1
0.242188 0.765625 0.302472 0 0 1
0.242188 0.773438 0.433078 0 0 1
0.242188 0.796875 0.506296 0 0 1
0.242188 0.8125 0.531762 0 0 1
0.242188 1.10938 0.555968 0 0 1
0.242188 1.14062 0.541564 0 0 1
0.242188 1.19531 0.45717 0 0 1
0.25 -1.26562 -0.00674403 0 0 1
0.25 -1.21875 0.167231 0 0 1
0.25 -1.15625 0.000888109 0 0 1
0.25 -1.07812 0.233994 0 0 1
0.25 -0.945312 0.0175605 0 0 1
0.25 -0.914062 0.303324 0 0 1
0.25 -0.882812 0.312192 0 0 1
0.25 -0.664062 0.0528975 0 0 1
0.25 -0.625 0.0333562 0 0 1
0.25 -0.398438 0.395598 0 0 1
0.25 -0.359375 0.00492024 0 0 1
0.25 -0.320312 0.395654 0 0 1
0.25 -0.289062 0.0392361 0 0 1
0.25 -0.257812 0.416434 0 0 1
0.25 -0.226562 0.0561755 0 0 1
0.25 -0.171875 0.424704 0 0 1
0.25 -0.101562 0.0847008 0 0 1
0.25 0.015625 0.0795867 0 0 1
0.25 0.0546875 0.0708556 0 0 1
0.25 0.0703125 0.420976 0 0 1
0.25 0.1875 0.0381038 0 0 1
0.25 0.273438 0.0338011 0 0 1
0.25 0.460938 0.056921 0 0 1
0.25 0.476562 0.420492 0 0 1
0.25 0.609375 0.36511 0 0 1
0.25 0.679688 0.181238 0 0 1
0.25 0.6875 0.379032 0 0 1
0.25 0.742188 0.28408 0 0 1
0.25 0.78125 0.328568 0 0 1
0.25 0.8125 0.335612 0 0 1
0.25 0.84375 0.332128 0 0 1
0.25 0.914062 0.304186 0 0 1
0.25 0.984375 0.270936 0 0 1
0.25 1 0.56978 0 0 1
0.25 1.02344 0.266052 0 0 1
0.25 1.03906 0.577266 0 0 1
0.25 1.15625 0.312608 0 0 1
0.25 1.17188 0.482754 0 0 1
0.257812 -1.67188 0.010525 0 0 1
0.257812 -1.66406 -0.0240537 0 0 1
0.257812 -1.64062 -0.00888789 0 0 1
0.257812 -1.61719 -0.0381521 0 0 1
0.257812 -1.60156 -0.00501692 0 0 1
0.257812 -1.59375 0.0200455 0 0 1
0.257812 -1.58594 -0.030356 0 0 1
0.257812 -1.5625 -0.0369397 0 0 1
0.257812 -1.53906 -0.0180355 0 0 1
0.257812 -1.35156 0.00785136 0 0 1
0.257812 -1.33594 0.0499384 0 0 1
0.257812 -1.29688 0.083962 0 0 1
0.257812 -1.25781 0.122757 0 0 1
0.257812 -1.14844 0.209474 0 0 1
0.257812 -0.992188 0.011626 0 0 1
0.257812 -0.984375 0.276272 0 0 1
0.257812 -0.8125 0.0307157 0 0 1
0.257812 -0.757812 0.0424645 0 0 1
0.257812 -0.71875 0.0487907 0 0 1
0.257812 -0.585938 0.00787783 0 0 1
0.257812 -0.554688 0.378984 0 0 1
0.257812 -0.515625 -0.0099889 0 0 1
0.257812 -0.140625 0.0813649 0 0 1
0.257812 -0.0625 0.418146 0 0 1
0.257812 -0.0390625 0.093498 0 0 1
0.257812 0 0.418596 0 0 1
0.257812 0.09375 0.0609782 0 0 1
0.257812 0.148438 0.0472596 0 0 1
0.257812 0.234375 0.0352666 0 0 1
0.257812 0.257812 0.462858 0 0 1
0.257812 0.289062 0.46456 0 0 1
0.257812 0.304688 0.0368474 0 0 1
0.257812 0.445312 0.430186 0 0 1
0.257812 0.53125 0.0777617 0 0 1
0.257812 0.5625 0.0954647 0 0 1
0.257812 0.703125 0.35177 0 0 1
0.257812 0.726562 0.36626 0 0 1
0.257812 0.75 0.330142 0 0 1
0.257812 0.773438 0.351792 0 0 1
0.257812 0.804688 0.426852 0 0 1
0.257812 0.8125 0.49651 0 0 1
0.257812 0.882812 0.325964 0 0 1
0.257812 0.890625 0.554164 0 0 1
0.257812 0.953125 0.55604 0 0 1
0.257812 1.07812 0.27575 0 0 1
0.257812 1.10156 0.28009 0 0 1
0.257812 1.125 0.52904 0 0 1
0.257812 1.14062 0.303854 0 0 1
0.257812 1.17188 0.343004 0 0 1
0.257812 1.19531 0.406386 0 0 1
0.265625 -1.75781 -0.0124055 0 0 1
0.265625 -1.72656 -0.0297416 0 0 1
0.265625 -1.71094 -0.000814795 0 0 1
0.265625 -1.69531 -0.0348634 0 0 1
0.265625 -1.6875 0.0274763 0 0 1
0.265625 -1.65625 -0.0678431 0 0 1
0.265625 -1.64844 0.032907 0 0 1
0.265625 -1.625 0.0251844 0 0 1
0.265625 -1.55469 0.0149236 0 0 1
0.265625 -1.52344 0.0103495 0 0 1
0.265625 -1.5 0.0216284 0 0 1
0.265625 -1.38281 0.0138512 0 0 1
0.265625 -1.36719 0.0476141 0 0 1
0.265625 -1.32812 0.0785472 0 0 1
0.265625 -1.29688 -0.0119663 0 0 1
0.265625 -1.28125 0.139948 0 0 1
0.265625 -1.24219 0.181418 0 0 1
0.265625 -1.09375 -0.000289321 0 0 1
0.265625 -1.03906 0.257018 0 0 1
0.265625 -1.00781 0.268736 0 0 1
0.265625 -0.601562 0.0288785 0 0 1
0.265625 -0.53125 0.383464 0 0 1
0.265625 -0.484375 0.385804 0 0 1
0.265625 -0.359375 0.394994 0 0 1
0.265625 -0.210938 0.417404 0 0 1
0.265625 -0.125 0.415442 0 0 1
0.265625 0.367188 0.0332091 0 0 1
0.265625 0.398438 0.446556 0 0 1
0.265625 0.5 0.0610466 0 0 1
0.265625 0.554688 0.407952 0 0 1
0.265625 0.585938 0.375374 0 0 1
0.265625 0.632812 0.138571 0 0 1
0.265625 0.65625 0.343062 0 0 1
0.265625 0.695312 0.32911 0 0 1
0.265625 0.71875 0.313754 0 0 1
0.265625 0.773438 0.388088 0 0 1
0.265625 0.859375 0.353236 0 0 1
0.265625 0.945312 0.298554 0 0 1
0.265625 0.976562 0.542356 0 0 1
0.265625 1.05469 0.28152 0 0 1
0.273438 -1.85156 0.000786304 0 0 1
0.273438 -1.8125 -0.00402701 0 0 1
0.273438 -1.78125 -0.0343248 0 0 1
0.273438 -1.72656 0.0348072 0 0 1
0.273438 -1.69531 -0.0579873 0 0 1
0.273438 -1.57812 -0.0671645 0 0 1
0.273438 -1.55469 0.0505352 0 0 1
0.273438 -1.54688 -0.0566674 0 0 1
0.273438 -1.52344 0.0367937 0 0 1
0.273438 -1.51562 -0.0512644 0 0 1
0.273438 -1.49219 -0.0329496 0 0 1
0.273438 -1.46875 -0.00155771 0 0 1
0.273438 -1.46094 0.0297272 0 0 1
0.273438 -1.42969 0.00808024 0 0 1
0.273438 -1.39844 0.0433767 0 0 1
0.273438 -1.39062 0.0690639 0 0 1
0.273438 -1.35938 0.0718367 0 0 1
0.273438 -1.32031 -0.0217937 0 0 1
0.273438 -1.3125 0.110562 0 0 1
0.273438 -1.28125 -0.0240983 0 0 1
0.273438 -1.24219 -0.0262519 0 0 1
0.273438 -1.19531 0.201722 0 0 1
0.273438 -1.1875 -0.0189162 0 0 1
0.273438 -1.13281 -0.00675571 0 0 1
0.273438 -1.02344 0.00231194 0 0 1
0.273438 -0.96875 0.00329638 0 0 1
0.273438 -0.960938 0.295126 0 0 1
0.273438 -0.882812 0.321662 0 0 1
0.273438 -0.867188 0.0190899 0 0 1
0.273438 -0.828125 0.336642 0 0 1
0.273438 -0.804688 0.34545 0 0 1
0.273438 -0.789062 0.0331731 0 0 1
0.273438 -0.679688 0.368162 0 0 1
0.273438 -0.554688 0.00208306 0 0 1
0.273438 -0.398438 0.0063324 0 0 1
0.273438 -0.320312 0.393244 0 0 1
0.273438 -0.28125 0.404774 0 0 1
0.273438 -0.265625 0.0545957 0 0 1
0.273438 -0.234375 0.409014 0 0 1
0.273438 -0.03125 0.406986 0 0 1
0.273438 0.3125 0.460232 0 0 1
0.273438 0.351562 0.455316 0 0 1
0.273438 0.40625 0.032974 0 0 1
0.273438 0.429688 0.040931 0 0 1
0.273438 0.59375 0.109274 0 0 1
0.273438 0.625 0.344102 0 0 1
0.273438 0.703125 0.218164 0 0 1
0.273438 0.71875 0.251138 0 0 1
0.273438 0.820312 0.377666 0 0 1
0.273438 0.835938 0.432524 0 0 1
0.273438 0.84375 0.407992 0 0 1
0.273438 0.859375 0.387556 0 0 1
0.273438 0.914062 0.535786 0 0 1
0.273438 0.976562 0.295228 0 0 1
0.273438 1.02344 0.544486 0 0 1
0.273438 1.07812 0.530134 0 0 1
0.273438 1.10938 0.518468 0 0 1
0.273438 1.11719 0.313724 0 0 1
0.273438 1.14062 0.499642 0 0 1
0.273438 1.14844 0.477064 0 0 1
0.273438 1.17188 0.368412 0 0 1
0.28125 -1.98438 -0.0134572 0 0 1
0.28125 -1.96094 -0.0309299 0 0 1
0.28125 -1.92969 -0.0294226 0 0 1
0.28125 -1.90625 -0.00149667 0 0 1
0.28125 -1.89062 -0.0285898 0 0 1
0.28125 -1.88281 0.00094986 0 0 1
0.28125 -1.85938 -0.0301481 0 0 1
0.28125 -1.84375 0.0320151 0 0 1
0.28125 -1.82031 -0.0269517 0 0 1
0.28125 -1.77344 0.033536 0 0 1
0.28125 -1.74219 -0.0576788 0 0 1
0.28125 -1.63281 -0.0811216 0 0 1
0.28125 -1.61719 0.0521414 0 0 1
0.28125 -1.60156 -0.0803241 0 0 1
0.28125 -1.47656 -0.0558587 0 0 1
0.28125 -1.45312 -0.0353936 0 0 1
0.28125 -1.44531 0.0612383 0 0 1
0.28125 -1.41406 -0.0193769 0 0 1
0.28125 -1.36719 -0.0242761 0 0 1
0.28125 -1.35938 0.0997672 0 0 1
0.28125 -1.30469 0.166512 0 0 1
0.28125 -1.27344 0.177516 0 0 1
0.28125 -1.10156 0.243314 0 0 1
0.28125 -1.0625 -0.0065552 0 0 1
0.28125 -0.992188 -0.000499606 0 0 1
0.28125 -0.90625 0.316204 0 0 1
0.28125 -0.859375 0.332744 0 0 1
0.28125 -0.78125 0.353418 0 0 1
0.28125 -0.6875 0.0520911 0 0 1
0.28125 -0.648438 0.0517788 0 0 1
0.28125 -0.617188 0.0440459 0 0 1
0.28125 -0.601562 0.377212 0 0 1
0.28125 -0.476562 0.00244904 0 0 1
0.28125 -0.445312 0.00587296 0 0 1
0.28125 -0.359375 0.0287879 0 0 1
0.28125 -0.226562 0.0664339 0 0 1
0.28125 -0.1875 0.0821385 0 0 1
0.28125 -0.140625 0.0895898 0 0 1
0.28125 -0.109375 0.403662 0 0 1
0.28125 -0.0859375 0.0982604 0 0 1
0.28125 -0.0625 0.398256 0 0 1
0.28125 0 0.103582 0 0 1
0.28125 0.03125 0.399458 0 0 1
0.28125 0.078125 0.399704 0 0 1
0.28125 0.132812 0.410046 0 0 1
0.28125 0.179688 0.0468121 0 0 1
0.28125 0.320312 0.0324161 0 0 1
0.28125 0.453125 0.424358 0 0 1
0.28125 0.460938 0.0421722 0 0 1
0.28125 0.5 0.411756 0 0 1
0.28125 0.523438 0.408394 0 0 1
0.28125 0.65625 0.155933 0 0 1
0.28125 0.6875 0.311172 0 0 1
0.28125 0.875 0.403718 0 0 1
0.28125 0.882812 0.469968 0 0 1
0.28125 0.890625 0.502866 0 0 1
0.28125 0.976562 0.521336 0 0 1
0.28125 1.00781 0.307078 0 0 1
0.28125 1.07031 0.308656 0 0 1
0.28125 1.14062 0.346844 0 0 1
0.28125 1.16406 0.452522 0 0 1
0.289062 -1.99219 0.0172908 0 0 1
0.289062 -1.94531 -0.0530394 0 0 1
0.289062 -1.92188 0.0215342 0 0 1
0.289062 -1.875 0.0301161 0 0 1
0.289062 -1.82031 -0.0585555 0 0 1
0.289062 -1.77344 -0.0637208 0 0 1
0.289062 -1.70312 0.0544875 0 0 1
0.289062 -1.69531 -0.0764955 0 0 1
0.289062 -1.55469 -0.0861057 0 0 1
0.289062 -1.50781 -0.0781647 0 0 1
0.289062 -1.40625 0.0784683 0 0 1
0.289062 -1.39062 0.0898297 0 0 1
0.289062 -1.34375 0.129902 0 0 1
0.289062 -1.23438 0.199117 0 0 1
0.289062 -1.15625 0.227026 0 0 1
0.289062 -1.13281 0.23374 0 0 1
0.289062 -1.09375 -0.0132943 0 0 1
0.289062 -1.07031 0.258946 0 0 1
0.289062 -0.929688 0.314242 0 0 1
0.289062 -0.898438 0.0104206 0 0 1
0.289062 -0.820312 0.0261652 0 0 1
0.289062 -0.710938 0.368354 0 0 1
0.289062 -0.578125 0.0190587 0 0 1
0.289062 -0.515625 0.381884 0 0 1
0.289062 -0.375 0.393566 0 0 1
0.289062 -0.34375 0.39146 0 0 1
0.289062 -0.304688 0.0579278 0 0 1
0.289062 -0.164062 0.408832 0 0 1
0.289062 0.0703125 0.0813684 0 0 1
0.289062 0.132812 0.0567651 0 0 1
0.289062 0.179688 0.41738 0 0 1
0.289062 0.21875 0.4398 0 0 1
0.289062 0.265625 0.452178 0 0 1
0.289062 0.414062 0.43804 0 0 1
0.289062 0.710938 0.285624 0 0 1
0.289062 0.898438 0.440298 0 0 1
0.289062 0.90625 0.363042 0 0 1
0.289062 0.914062 0.469842 0 0 1
0.289062 0.9375 0.329126 0 0 1
0.289062 0.960938 0.479278 0 0 1
0.289062 1.00781 0.509674 0 0 1
0.289062 1.03125 0.513348 0 0 1
0.289062 1.07812 0.505512 0 0 1
0.289062 1.11719 0.484864 0 0 1
0.296875 -1.99219 -0.0579911 0 0 1
0.296875 -1.90625 -0.0609192 0 0 1
0.296875 -1.79688 0.0513453 0 0 1
0.296875 -1.67969 -0.0885686 0 0 1
0.296875 -1.66406 0.0634201 0 0 1
0.296875 -1.5625 0.07406 0 0 1
0.296875 -1.53906 0.0711546 0 0 1
0.296875 -1.50781 0.0719938 0 0 1
0.296875 -1.47656 0.0711584 0 0 1
0.296875 -1.4375 0.0812979 0 0 1
0.296875 -1.41406 -0.0553592 0 0 1
0.296875 -1.30469 -0.0346931 0 0 1
0.296875 -1.21094 -0.0281075 0 0 1
0.296875 -1.14062 -0.0204147 0 0 1
0.296875 -1.03125 -0.0094713 0 0 1
0.296875 -0.960938 0.30484 0 0 1
0.296875 -0.929688 0.00437832 0 0 1
0.296875 -0.828125 0.34687 0 0 1
0.296875 -0.75 0.364252 0 0 1
0.296875 -0.585938 0.373488 0 0 1
0.296875 -0.523438 0.0123227 0 0 1
0.296875 -0.46875 0.38548 0 0 1
0.296875 -0.421875 0.392416 0 0 1
0.296875 -0.265625 0.398188 0 0 1
0.296875 -0.210938 0.404898 0 0 1
0.296875 -0.0546875 0.114145 0 0 1
0.296875 -0.0234375 0.113176 0 0 1
0.296875 -0.0078125 0.385172 0 0 1
0.296875 0.101562 0.393416 0 0 1
0.296875 0.109375 0.0679774 0 0 1
0.296875 0.21875 0.0430326 0 0 1
0.296875 0.242188 0.44326 0 0 1
0.296875 0.28125 0.0343828 0 0 1
0.296875 0.382812 0.44649 0 0 1
0.296875 0.53125 0.0669775 0 0 1
0.296875 0.554688 0.0833917 0 0 1
0.296875 0.585938 0.366652 0 0 1
0.296875 0.617188 0.331546 0 0 1
0.296875 0.664062 0.171022 0 0 1
0.296875 0.6875 0.20184 0 0 1
0.296875 0.703125 0.244672 0 0 1
0.296875 0.90625 0.405086 0 0 1
0.296875 0.929688 0.422486 0 0 1
0.296875 0.9375 0.351974 0 0 1
0.296875 0.960938 0.333406 0 0 1
0.296875 0.96875 0.45307 0 0 1
0.296875 1 0.33289 0 0 1
0.296875 1.01562 0.483924 0 0 1
0.296875 1.05469 0.492312 0 0 1
0.296875 1.08594 0.336632 0 0 1
0.296875 1.09375 0.481348 0 0 1
0.296875 1.11719 0.357978 0 0 1
0.296875 1.13281 0.42838 0 0 1
0.296875 1.14062 0.396282 0 0 1
0.304688 -1.97656 0.0465641 0 0 1
0.304688 -1.9375 0.0466404 0 0 1
0.304688 -1.86719 -0.0699753 0 0 1
0.304688 -1.6875 0.0718331 0 0 1
0.304688 -1.60938 -0.0971526 0 0 1
0.304688 -1.59375 0.0782421 0 0 1
0.304688 -1.44531 -0.0734679 0 0 1
0.304688 -1.35156 0.151153 0 0 1
0.304688 -1.33594 -0.0434216 0 0 1
0.304688 -0.96875 -0.00323093 0 0 1
0.304688 -0.867188 0.333418 0 0 1
0.304688 -0.835938 0.0231736 0 0 1
0.304688 -0.78125 0.0353215 0 0 1
0.304688 -0.6875 0.37131 0 0 1
0.304688 -0.554688 0.370972 0 0 1
0.304688 -0.546875 0.0208437 0 0 1
0.304688 -0.445312 0.0269401 0 0 1
0.304688 -0.390625 0.0361693 0 0 1
0.304688 -0.328125 0.0571496 0 0 1
0.304688 -0.289062 0.389576 0 0 1
0.304688 -0.257812 0.0725331 0 0 1
0.304688 -0.226562 0.0804772 0 0 1
0.304688 -0.203125 0.0884159 0 0 1
0.304688 -0.09375 0.11118 0 0 1
0.304688 -0.0625 0.38151 0 0 1
0.304688 0.242188 0.0401754 0 0 1
0.304688 0.429688 0.0289369 0 0 1
0.304688 0.585938 0.100412 0 0 1
0.304688 0.617188 0.122802 0 0 1
0.304688 0.890625 0.417876 0 0 1
0.304688 0.960938 0.368136 0 0 1
0.304688 0.976562 0.424804 0 0 1
0.304688 0.984375 0.355122 0 0 1
0.304688 1.01562 0.350614 0 0 1
0.304688 1.02344 0.4397 0 0 1
0.304688 1.0625 0.35003 0 0 1
0.304688 1.09375 0.372412 0 0 1
0.3125 -1.95312 -0.0700048 0 0 1
0.3125 -1.91406 0.0575449 0 0 1
0.3125 -1.85938 0.0614717 0 0 1
0.3125 -1.82031 0.0599248 0 0 1
0.3125 -1.73438 -0.084164 0 0 1
0.3125 -1.71094 0.0771379 0 0 1
0.3125 -1.64844 -0.0990778 0 0 1
0.3125 -1.64062 0.0831594 0 0 1
0.3125 -1.54688 -0.100664 0 0 1
0.3125 -1.49219 -0.0894231 0 0 1
0.3125 -1.42188 0.11095 0 0 1
0.3125 -1.38281 -0.0621363 0 0 1
0.3125 -1.32812 0.179936 0 0 1
0.3125 -1.28906 0.192695 0 0 1
0.3125 -1.27344 -0.0380467 0 0 1
0.3125 -1.16406 -0.0264491 0 0 1
0.3125 -1.10156 -0.0205666 0 0 1
0.3125 -1.00781 0.287964 0 0 1
0.3125 -0.796875 0.35222 0 0 1
0.3125 -0.703125 0.0544529 0 0 1
0.3125 -0.640625 0.0548935 0 0 1
0.3125 -0.523438 0.376196 0 0 1
0.3125 -0.5 0.0249071 0 0 1
0.3125 -0.359375 0.38265 0 0 1
0.3125 -0.28125 0.0814991 0 0 1
0.3125 -0.15625 0.10578 0 0 1
0.3125 -0.140625 0.395996 0 0 1
0.3125 -0.125 0.111541 0 0 1
0.3125 -0.015625 0.130832 0 0 1
0.3125 0.03125 0.109357 0 0 1
0.3125 0.0703125 0.370884 0 0 1
0.3125 0.15625 0.385302 0 0 1
0.3125 0.210938 0.419692 0 0 1
0.3125 0.359375 0.0213039 0 0 1
0.3125 0.398438 0.438346 0 0 1
0.3125 0.492188 0.407028 0 0 1
0.3125 0.5 0.0487177 0 0 1
0.3125 0.53125 0.400126 0 0 1
0.3125 0.554688 0.395442 0 0 1
0.3125 0.695312 0.287646 0 0 1
0.3125 0.929688 0.390074 0 0 1
0.3125 1.01562 0.407942 0 0 1
0.3125 1.02344 0.376948 0 0 1
0.3125 1.04688 0.38499 0 0 1
0.3125 1.07812 0.416836 0 0 1
0.3125 1.10156 0.401762 0 0 1
0.320312 -1.98438 0.0684149 0 0 1
0.320312 -1.92188 -0.0754858 0 0 1
0.320312 -1.89844 -0.0768327 0 0 1
0.320312 -1.82031 -0.0797385 0 0 1
0.320312 -1.78125 0.0715551 0 0 1
0.320312 -1.75 0.0733662 0 0 1
0.320312 -1.60156 0.0933933 0 0 1
0.320312 -1.55469 0.0939839 0 0 1
0.320312 -1.52344 -0.103628 0 0 1
0.320312 -1.48438 0.0986474 0 0 1
0.320312 -1.45312 -0.0892445 0 0 1
0.320312 -1.44531 0.107059 0 0 1
0.320312 -1.42188 -0.0781842 0 0 1
0.320312 -1.39844 0.119709 0 0 1
0.320312 -1.23438 -0.0355664 0 0 1
0.320312 -1.19531 0.220972 0 0 1
0.320312 -1.15625 0.232232 0 0 1
0.320312 -1.10938 0.246204 0 0 1
0.320312 -0.890625 0.326908 0 0 1
0.320312 -0.726562 0.36417 0 0 1
0.320312 -0.648438 0.372776 0 0 1
0.320312 -0.601562 0.0508697 0 0 1
0.320312 -0.421875 0.0508285 0 0 1
0.320312 -0.359375 0.0664744 0 0 1
0.320312 -0.265625 0.383466 0 0 1
0.320312 -0.257812 0.0917733 0 0 1
0.320312 -0.226562 0.386004 0 0 1
0.320312 -0.179688 0.39605 0 0 1
0.320312 -0.101562 0.384916 0 0 1
0.320312 -0.0390625 0.369444 0 0 1
0.320312 0.09375 0.36719 0 0 1
0.320312 0.140625 0.0674803 0 0 1
0.320312 0.1875 0.0538344 0 0 1
0.320312 0.265625 0.0386603 0 0 1
0.320312 0.460938 0.415162 0 0 1
0.320312 0.53125 0.063416 0 0 1
0.320312 0.632812 0.317734 0 0 1
0.320312 0.65625 0.160355 0 0 1
0.320312 0.695312 0.262658 0 0 1
0.320312 0.90625 0.390674 0 0 1
0.328125 -1.6875 -0.0975422 0 0 1
0.328125 -1.67188 0.0889258 0 0 1
0.328125 -1.60938 -0.10779 0 0 1
0.328125 -1.35938 -0.0688444 0 0 1
0.328125 -1.30469 -0.0485574 0 0 1
0.328125 -1.27344 0.205996 0 0 1
0.328125 -1.24219 0.211072 0 0 1
0.328125 -1.07812 0.258114 0 0 1
0.328125 -1.03125 0.279626 0 0 1
0.328125 -1.00781 -0.0104402 0 0 1
0.328125 -0.953125 0.307002 0 0 1
0.328125 -0.914062 0.00957227 0 0 1
0.328125 -0.765625 0.0433998 0 0 1
0.328125 -0.476562 0.0517993 0 0 1
0.328125 -0.429688 0.386656 0 0 1
0.328125 -0.390625 0.0689981 0 0 1
0.328125 -0.328125 0.375628 0 0 1
0.328125 -0.304688 0.0948367 0 0 1
0.328125 -0.210938 0.100488 0 0 1
0.328125 0 0.360152 0 0 1
0.328125 0.132812 0.369594 0 0 1
0.328125 0.28125 0.437718 0 0 1
0.328125 0.304688 0.0328124 0 0 1
0.328125 0.460938 0.0389438 0 0 1
0.328125 0.601562 0.107797 0 0 1
0.328125 0.65625 0.302784 0 0 1
0.328125 0.671875 0.203278 0 0 1
0.335938 -1.92188 0.070781 0 0 1
0.335938 -1.75781 -0.087417 0 0 1
0.335938 -1.58594 -0.109205 0 0 1
0.335938 -1.54688 -0.107884 0 0 1
0.335938 -1.5 -0.102303 0 0 1
0.335938 -1.49219 0.113402 0 0 1
0.335938 -1.47656 -0.0984546 0 0 1
0.335938 -1.39844 -0.0811433 0 0 1
0.335938 -1.07031 -0.0170079 0 0 1
0.335938 -1.05469 0.270148 0 0 1
0.335938 -1.04688 -0.0135683 0 0 1
0.335938 -0.875 0.329704 0 0 1
0.335938 -0.820312 0.0359726 0 0 1
0.335938 -0.6875 0.368106 0 0 1
0.335938 -0.664062 0.0631595 0 0 1
0.335938 -0.554688 0.0532315 0 0 1
0.335938 -0.484375 0.377074 0 0 1
0.335938 -0.421875 0.072747 0 0 1
0.335938 -0.335938 0.0905378 0 0 1
0.335938 -0.242188 0.105468 0 0 1
0.335938 -0.203125 0.380154 0 0 1
0.335938 -0.132812 0.378426 0 0 1
0.335938 -0.101562 0.133149 0 0 1
0.335938 -0.015625 0.148817 0 0 1
0.335938 0.15625 0.369196 0 0 1
0.335938 0.234375 0.42075 0 0 1
0.335938 0.28125 0.0376134 0 0 1
0.335938 0.34375 0.0274608 0 0 1
0.335938 0.367188 0.438204 0 0 1
0.335938 0.414062 0.0262723 0 0 1
0.335938 0.421875 0.427362 0 0 1
0.335938 0.570312 0.365786 0 0 1
0.335938 0.679688 0.279542 0 0 1
0.335938 0.953125 0.391866 0 0 1
0.34375 -1.96875 -0.0717238 0 0 1
0.34375 -1.71094 0.0959837 0 0 1
0.34375 -1.63281 -0.107275 0 0 1
0.34375 -1.57812 0.106885 0 0 1
0.34375 -1.42969 0.131611 0 0 1
0.34375 -1.42188 -0.0894653 0 0 1
0.34375 -1.39062 0.152632 0 0 1
0.34375 -1.3125 0.190582 0 0 1
0.34375 -1.25 -0.0409418 0 0 1
0.34375 -1.19531 0.215682 0 0 1
0.34375 -1.1875 -0.0277644 0 0 1
0.34375 -1.16406 0.222796 0 0 1
0.34375 -1.11719 0.24137 0 0 1
0.34375 -0.992188 0.294678 0 0 1
0.34375 -0.976562 -0.000267148 0 0 1
0.34375 -0.867188 0.0244715 0 0 1
0.34375 -0.710938 0.0606668 0 0 1
0.34375 -0.632812 0.371516 0 0 1
0.34375 -0.601562 0.367864 0 0 1
0.34375 -0.554688 0.362984 0 0 1
0.34375 -0.507812 0.0589731 0 0 1
0.34375 -0.445312 0.0746038 0 0 1
0.34375 -0.382812 0.369134 0 0 1
0.34375 -0.375 0.0966473 0 0 1
0.34375 -0.296875 0.115838 0 0 1
0.34375 -0.28125 0.364414 0 0 1
0.34375 -0.21875 0.365142 0 0 1
0.34375 -0.164062 0.130738 0 0 1
0.34375 -0.0625 0.154052 0 0 1
0.34375 0.0078125 0.148609 0 0 1
0.34375 0.09375 0.0942457 0 0 1
0.34375 0.195312 0.059262 0 0 1
0.34375 0.203125 0.390462 0 0 1
0.34375 0.234375 0.0485477 0 0 1
0.34375 0.625 0.130579 0 0 1
0.34375 0.671875 0.223528 0 0 1
0.351562 -1.89844 -0.07579 0 0 1
0.351562 -1.88281 0.077574 0 0 1
0.351562 -1.80469 0.0858307 0 0 1
0.351562 -1.78125 -0.0852593 0 0 1
0.351562 -1.75 0.0935843 0 0 1
0.351562 -1.73438 -0.0904356 0 0 1
0.351562 -1.65625 -0.104301 0 0 1
0.351562 -1.55469 0.117447 0 0 1
0.351562 -1.52344 0.119253 0 0 1
0.351562 -1.35156 0.173101 0 0 1
0.351562 -1.26562 0.200252 0 0 1
0.351562 -1.23438 0.20248 0 0 1
0.351562 -1.15625 -0.02327 0 0 1
0.351562 -1.08594 0.251328 0 0 1
0.351562 -0.921875 0.315272 0 0 1
0.351562 -0.796875 0.346518 0 0 1
0.351562 -0.773438 0.0528791 0 0 1
0.351562 -0.734375 0.35699 0 0 1
0.351562 -0.703125 0.363442 0 0 1
0.351562 -0.578125 0.359262 0 0 1
0.351562 -0.46875 0.0906525 0 0 1
0.351562 -0.398438 0.100887 0 0 1
0.351562 -0.34375 0.118512 0 0 1
0.351562 -0.273438 0.125444 0 0 1
0.351562 -0.25 0.12324 0 0 1
0.351562 -0.117188 0.151464 0 0 1
0.351562 -0.0625 0.34244 0 0 1
0.351562 -0.03125 0.171944 0 0 1
0.351562 0.0390625 0.141545 0 0 1
0.351562 0.046875 0.328098 0 0 1
0.351562 0.101562 0.340496 0 0 1
0.351562 0.132812 0.0868268 0 0 1
0.351562 0.1875 0.366124 0 0 1
0.351562 0.226562 0.396544 0 0 1
0.351562 0.3125 0.0356817 0 0 1
0.351562 0.375 0.0302773 0 0 1
0.351562 0.46875 0.401768 0 0 1
0.351562 0.5 0.39191 0 0 1
0.351562 0.539062 0.384258 0 0 1
0.351562 0.679688 0.247464 0 0 1
0.359375 -1.99219 -0.0605215 0 0 1
0.359375 -1.96875 0.0765824 0 0 1
0.359375 -1.83594 0.0805814 0 0 1
0.359375 -1.64844 0.110759 0 0 1
0.359375 -1.60938 0.114273 0 0 1
0.359375 -1.46094 -0.0975713 0 0 1
0.359375 -1.14062 0.224976 0 0 1
0.359375 -0.953125 0.303558 0 0 1
0.359375 -0.9375 0.0127661 0 0 1
0.359375 -0.890625 0.028203 0 0 1
0.359375 -0.84375 0.0407205 0 0 1
0.359375 -0.820312 0.336232 0 0 1
0.359375 -0.695312 0.0740075 0 0 1
0.359375 -0.625 0.072988 0 0 1
0.359375 -0.59375 0.0683908 0 0 1
0.359375 -0.53125 0.077616 0 0 1
0.359375 -0.492188 0.0881715 0 0 1
0.359375 -0.445312 0.37387 0 0 1
0.359375 -0.429688 0.107853 0 0 1
0.359375 -0.40625 0.12277 0 0 1
0.359375 -0.375 0.127151 0 0 1
0.359375 -0.242188 0.3524 0 0 1
0.359375 -0.21875 0.136862 0 0 1
0.359375 -0.117188 0.346202 0 0 1
0.359375 -0.09375 0.163598 0 0 1
0.359375 0.0625 0.127239 0 0 1
0.359375 0.171875 0.0739217 0 0 1
0.359375 0.3125 0.427528 0 0 1
0.359375 0.40625 0.0354841 0 0 1
0.359375 0.523438 0.0729711 0 0 1
0.359375 0.625 0.30853 0 0 1
0.359375 0.632812 0.160229 0 0 1
0.367188 -1.9375 -0.0650615 0 0 1
0.367188 -1.85156 -0.0752746 0 0 1
0.367188 -1.70312 -0.0937144 0 0 1
0.367188 -1.69531 0.105088 0 0 1
0.367188 -1.625 -0.104918 0 0 1
0.367188 -1.57812 -0.110697 0 0 1
0.367188 -1.46094 0.12891 0 0 1
0.367188 -1.27344 -0.0441266 0 0 1
0.367188 -1.22656 -0.0322932 0 0 1
0.367188 -1.17969 0.20931 0 0 1
0.367188 -1.10938 -0.00499284 0 0 1
0.367188 -1.04688 -0.00118363 0 0 1
0.367188 -0.898438 0.313642 0 0 1
0.367188 -0.867188 0.323668 0 0 1
0.367188 -0.773438 0.34181 0 0 1
0.367188 -0.671875 0.354432 0 0 1
0.367188 -0.601562 0.353648 0 0 1
0.367188 -0.523438 0.35477 0 0 1
0.367188 -0.484375 0.367884 0 0 1
0.367188 -0.351562 0.348346 0 0 1
0.367188 -0.328125 0.141383 0 0 1
0.367188 -0.1875 0.33552 0 0 1
0.367188 -0.132812 0.175138 0 0 1
0.367188 -0.09375 0.189289 0 0 1
0.367188 -0.0703125 0.316452 0 0 1
0.367188 -0.0234375 0.304208 0 0 1
0.367188 -0.0078125 0.192541 0 0 1
0.367188 0.03125 0.302666 0 0 1
0.367188 0.078125 0.310368 0 0 1
0.367188 0.09375 0.123476 0 0 1
0.367188 0.15625 0.339722 0 0 1
0.367188 0.265625 0.407044 0 0 1
0.367188 0.296875 0.417374 0 0 1
0.367188 0.390625 0.425266 0 0 1
0.367188 0.492188 0.0598717 0 0 1
0.367188 0.546875 0.0933001 0 0 1
0.367188 0.570312 0.362972 0 0 1
0.367188 0.601562 0.124125 0 0 1
0.367188 0.65625 0.278728 0 0 1
0.367188 0.664062 0.231688 0 0 1
0.375 -1.9375 0.0739162 0 0 1
0.375 -1.90625 0.0749266 0 0 1
0.375 -1.8125 -0.0763935 0 0 1
0.375 -1.5 -0.104906 0 0 1
0.375 -1.35938 -0.0699574 0 0 1
0.375 -1.19531 -0.0166732 0 0 1
0.375 -1.15625 -0.0106255 0 0 1
0.375 -1.01562 0.00922203 0 0 1
0.375 -0.929688 0.300718 0 0 1
0.375 -0.859375 0.0472758 0 0 1
0.375 -0.765625 0.065762 0 0 1
0.375 -0.742188 0.338338 0 0 1
0.375 -0.726562 0.0713007 0 0 1
0.375 -0.625 0.350018 0 0 1
0.375 -0.546875 0.0891395 0 0 1
0.375 -0.476562 0.124547 0 0 1
0.375 -0.460938 0.35339 0 0 1
0.375 -0.429688 0.143091 0 0 1
0.375 -0.40625 0.34689 0 0 1
0.375 -0.296875 0.152603 0 0 1
0.375 -0.257812 0.319794 0 0 1
0.375 -0.242188 0.15534 0 0 1
0.375 -0.210938 0.308982 0 0 1
0.375 -0.171875 0.1814 0 0 1
0.375 -0.164062 0.330448 0 0 1
0.375 -0.132812 0.322568 0 0 1
0.375 -0.109375 0.318134 0 0 1
0.375 -0.046875 0.218216 0 0 1
0.375 -0.03125 0.24435 0 0 1
0.375 -0.0078125 0.249966 0 0 1
0.375 0 0.273028 0 0 1
0.375 0.0390625 0.173503 0 0 1
0.375 0.0546875 0.300054 0 0 1
0.375 0.117188 0.118563 0 0 1
0.375 0.140625 0.320584 0 0 1
0.375 0.203125 0.0707946 0 0 1
0.375 0.226562 0.365122 0 0 1
0.375 0.265625 0.0546932 0 0 1
0.375 0.296875 0.0483429 0 0 1
0.375 0.351562 0.425508 0 0 1
0.375 0.359375 0.0405896 0 0 1
0.375 0.429688 0.41247 0 0 1
0.375 0.515625 0.382352 0 0 1
0.375 0.648438 0.191594 0 0 1
0.382812 -1.99219 -0.0387667 0 0 1
0.382812 -1.90625 -0.0594965 0 0 1
0.382812 -1.875 -0.0669726 0 0 1
0.382812 -1.78125 0.0924833 0 0 1
0.382812 -1.74219 -0.0800813 0 0 1
0.382812 -1.66406 -0.0954014 0 0 1
0.382812 -1.57812 0.119847 0 0 1
0.382812 -1.51562 0.123478 0 0 1
0.382812 -1.47656 0.128003 0 0 1
0.382812 -1.41406 0.140025 0 0 1
0.382812 -1.375 0.1484 0 0 1
0.382812 -1.35156 0.165256 0 0 1
0.382812 -1.32031 -0.0544297 0 0 1
0.382812 -1.28125 0.188148 0 0 1
0.382812 -1.25 -0.027464 0 0 1
0.382812 -1.17188 0.194055 0 0 1
0.382812 -1.04688 0.247502 0 0 1
0.382812 -0.96875 0.0231929 0 0 1
0.382812 -0.960938 0.286484 0 0 1
0.382812 -0.914062 0.0366774 0 0 1
0.382812 -0.875 0.30881 0 0 1
0.382812 -0.84375 0.318248 0 0 1
0.382812 -0.804688 0.0626051 0 0 1
0.382812 -0.789062 0.325588 0 0 1
0.382812 -0.710938 0.339388 0 0 1
0.382812 -0.671875 0.0842254 0 0 1
0.382812 -0.648438 0.08671 0 0 1
0.382812 -0.609375 0.0905483 0 0 1
0.382812 -0.578125 0.0931799 0 0 1
0.382812 -0.5625 0.339028 0 0 1
0.382812 -0.53125 0.115433 0 0 1
0.382812 -0.515625 0.34092 0 0 1
0.382812 -0.492188 0.346176 0 0 1
0.382812 -0.429688 0.34614 0 0 1
0.382812 -0.382812 0.157226 0 0 1
0.382812 -0.320312 0.307282 0 0 1
0.382812 -0.28125 0.305448 0 0 1
0.382812 -0.257812 0.173395 0 0 1
0.382812 -0.234375 0.295006 0 0 1
0.382812 -0.179688 0.202368 0 0 1
0.382812 -0.148438 0.2748 0 0 1
0.382812 -0.140625 0.201888 0 0 1
0.382812 -0.117188 0.270142 0 0 1
0.382812 -0.101562 0.21647 0 0 1
0.382812 -0.09375 0.24537 0 0 1
0.382812 -0.0859375 0.284542 0 0 1
0.382812 -0.0625 0.24526 0 0 1
0.382812 0 0.22926 0 0 1
0.382812 0.0234375 0.208408 0 0 1
0.382812 0.0390625 0.270274 0 0 1
0.382812 0.0625 0.158744 0 0 1
0.382812 0.140625 0.296812 0 0 1
0.382812 0.15625 0.0982785 0 0 1
0.382812 0.226562 0.0704739 0 0 1
0.382812 0.257812 0.380912 0 0 1
0.382812 0.335938 0.0461228 0 0 1
0.382812 0.453125 0.0583954 0 0 1
0.382812 0.59375 0.33985 0 0 1
0.382812 0.609375 0.143641 0 0 1
0.382812 0.664062 0.257448 0 0 1
0.390625 -1.99219 0.0580373 0 0 1
0.390625 -1.95312 -0.0391434 0 0 1
0.390625 -1.82031 0.0804558 0 0 1
0.390625 -1.78906 -0.0739199 0 0 1
0.390625 -1.74219 0.0989931 0 0 1
0.390625 -1.6875 -0.0888778 0 0 1
0.390625 -1.55469 -0.104024 0 0 1
0.390625 -1.21094 0.175328 0 0 1
0.390625 -1.16406 0.00790691 0 0 1
0.390625 -1.10156 0.223694 0 0 1
0.390625 -1.09375 0.0148771 0 0 1
0.390625 -1.07031 0.023948 0 0 1
0.390625 -0.90625 0.29877 0 0 1
0.390625 -0.695312 0.0903857 0 0 1
0.390625 -0.375 0.315878 0 0 1
0.390625 -0.351562 0.309934 0 0 1
0.390625 -0.328125 0.182572 0 0 1
0.390625 -0.3125 0.258624 0 0 1
0.390625 -0.304688 0.219426 0 0 1
0.390625 -0.289062 0.274434 0 0 1
0.390625 -0.28125 0.194077 0 0 1
0.390625 -0.257812 0.276078 0 0 1
0.390625 -0.234375 0.183787 0 0 1
0.390625 -0.210938 0.22782 0 0 1
0.390625 -0.179688 0.253088 0 0 1
0.390625 -0.148438 0.238154 0 0 1
0.390625 0.03125 0.242758 0 0 1
0.390625 0.0546875 0.251314 0 0 1
0.390625 0.0625 0.184017 0 0 1
0.390625 0.09375 0.160998 0 0 1
0.390625 0.101562 0.275238 0 0 1
0.390625 0.1875 0.315478 0 0 1
0.390625 0.257812 0.355548 0 0 1
0.390625 0.476562 0.0694973 0 0 1
0.390625 0.507812 0.0796638 0 0 1
0.390625 0.648438 0.232884 0 0 1
0.398438 -2 -0.00246799 0 0 1
0.398438 -1.97656 0.00226402 0 0 1
0.398438 -1.96875 -0.0236856 0 0 1
0.398438 -1.92969 0.0583961 0 0 1
0.398438 -1.91406 -0.0366637 0 0 1
0.398438 -1.85156 0.0703957 0 0 1
0.398438 -1.66406 0.11034 0 0 1
0.398438 -1.61719 0.115394 0 0 1
0.398438 -1.42969 -0.0823847 0 0 1
0.398438 -1.39844 -0.0723771 0 0 1
0.398438 -1.23438 -0.0085355 0 0 1
0.398438 -1.22656 0.16631 0 0 1
0.398438 -1.19531 0.00401759 0 0 1
0.398438 -1.14062 0.196185 0 0 1
0.398438 -1.13281 0.0185935 0 0 1
0.398438 -1.00781 0.032264 0 0 1
0.398438 -1 0.262586 0 0 1
0.398438 -0.945312 0.0452411 0 0 1
0.398438 -0.898438 0.0561266 0 0 1
0.398438 -0.671875 0.328958 0 0 1
0.398438 -0.59375 0.322806 0 0 1
0.398438 -0.570312 0.121464 0 0 1
0.398438 -0.539062 0.318432 0 0 1
0.398438 -0.492188 0.15337 0 0 1
0.398438 -0.476562 0.32422 0 0 1
0.398438 -0.460938 0.30883 0 0 1
0.398438 -0.414062 0.314396 0 0 1
0.398438 -0.375 0.188052 0 0 1
0.398438 -0.351562 0.199951 0 0 1
0.398438 -0.335938 0.288114 0 0 1
0.398438 -0.265625 0.232338 0 0 1
0.398438 -0.234375 0.218616 0 0 1
0.398438 -0.226562 0.24447 0 0 1
0.398438 0.09375 0.18882 0 0 1
0.398438 0.117188 0.152148 0 0 1
0.398438 0.140625 0.137641 0 0 1
0.398438 0.171875 0.10539 0 0 1
0.398438 0.226562 0.325282 0 0 1
0.398438 0.257812 0.0685179 0 0 1
0.398438 0.289062 0.0640607 0 0 1
0.398438 0.296875 0.393178 0 0 1
0.398438 0.382812 0.0547822 0 0 1
0.398438 0.414062 0.410784 0 0 1
0.398438 0.460938 0.40141 0 0 1
0.398438 0.5 0.390704 0 0 1
